# This PCD file was generated using the MATLAB® pcwrite function
# from Computer Vision Toolbox®.
# .PCD v.7 - Point Cloud Data file format
VERSION .7
FIELDS x y z
SIZE 4 4 4
TYPE F F F
COUNT 1 1 1
WIDTH 1615
HEIGHT 1
VIEWPOINT 0 0 0 1 0 0 0
POINTS 1615
DATA ascii
16.200001 10.282000 -0.264000
15.976000 10.203000 0.334000
16.212000 10.301000 -0.571000
16.082001 10.275000 0.017000
16.025999 10.324000 0.637000
16.121000 10.292000 -0.894000
16.089001 10.322000 -0.282000
15.870000 10.245000 0.312000
16.076000 10.327000 -0.589000
15.987000 10.326000 -0.003000
15.924000 10.366000 0.615000
15.999000 10.326000 -0.909000
15.997000 10.374000 -0.302000
15.771000 10.288000 0.290000
15.968000 10.368000 -0.607000
15.892000 10.373000 -0.024000
15.819000 10.405000 0.590000
15.882000 10.361000 -0.927000
15.891000 10.415000 -0.322000
15.657000 10.320000 0.269000
15.840000 10.394000 -0.624000
15.336000 10.113000 -0.044000
15.221000 10.113000 0.549000
15.333000 10.109000 -0.918000
15.285000 10.121000 -0.332000
15.206000 10.124000 0.240000
15.277000 10.130000 -0.626000
15.211000 10.135000 -0.065000
15.161000 10.173000 0.527000
15.340000 10.219000 -0.942000
15.270000 10.213000 -0.354000
15.279000 10.274000 0.219000
15.363000 10.290000 -0.653000
15.340000 10.321000 -0.088000
15.303000 10.369000 0.510000
15.422000 10.380000 -0.973000
15.368000 10.382000 -0.380000
15.314000 10.398000 0.199000
15.388000 10.410000 -0.678000
15.327000 10.412000 -0.111000
15.341000 10.493000 0.489000
15.392000 10.462000 -0.997000
15.487000 10.564000 -0.407000
15.406000 10.560000 0.176000
15.498000 10.587000 -0.709000
15.439000 10.590000 -0.136000
15.337000 10.588000 0.467000
15.320000 10.516000 -1.017000
15.387000 10.596000 -0.430000
15.331000 10.605000 0.151000
15.410000 10.628000 -0.731000
15.348000 10.625000 -0.160000
15.253000 10.625000 0.440000
15.238000 10.561000 -1.040000
15.287000 10.626000 -0.453000
15.217000 10.622000 0.127000
15.299000 10.649000 -0.751000
15.256000 10.656000 -0.184000
15.187000 10.672000 0.414000
15.174000 10.614000 -1.063000
15.211000 10.669000 -0.477000
15.145000 10.665000 0.100000
15.208000 10.683000 -0.775000
15.150000 10.676000 -0.208000
15.108000 10.707000 0.388000
15.102000 10.661000 -1.086000
15.145000 10.716000 -0.502000
15.100000 10.724000 0.074000
15.123000 10.718000 -0.799000
15.065000 10.708000 -0.235000
15.015000 10.730000 0.359000
15.084000 10.744000 -1.114000
15.071000 10.755000 -0.526000
15.025000 10.760000 0.048000
15.035000 10.749000 -0.822000
15.021000 10.766000 -0.261000
14.928000 10.754000 0.331000
15.012000 10.786000 -1.139000
14.967000 10.772000 -0.551000
14.925000 10.775000 0.020000
14.984000 10.803000 -0.849000
14.933000 10.790000 -0.286000
14.875000 10.800000 0.304000
14.914000 10.807000 -1.161000
14.887000 10.801000 -0.577000
14.846000 10.801000 -0.007000
14.890000 10.823000 -0.873000
14.842000 10.809000 -0.314000
14.787000 10.817000 0.274000
14.828000 10.834000 -1.186000
14.821000 10.839000 -0.603000
14.798000 10.848000 -0.034000
14.798000 10.843000 -0.897000
14.765000 10.835000 -0.341000
14.661000 10.804000 0.244000
14.781000 10.886000 -1.213000
14.760000 10.877000 -0.631000
14.720000 10.871000 -0.064000
14.742000 10.885000 -0.926000
14.741000 10.898000 -0.369000
14.557000 10.803000 0.215000
14.708000 10.916000 -1.238000
14.676000 10.895000 -0.658000
14.636000 10.884000 -0.093000
14.680000 10.921000 -0.953000
14.635000 10.898000 -0.398000
14.480000 10.819000 0.184000
14.048000 10.506000 -1.215000
14.629000 10.938000 -0.686000
14.608000 10.938000 -0.121000
14.598000 10.938000 -0.979000
14.572000 10.924000 -0.427000
14.438000 10.857000 0.154000
13.980000 10.531000 -1.240000
14.556000 10.959000 -0.716000
14.514000 10.939000 -0.152000
14.242000 10.746000 -0.988000
14.542000 10.974000 -0.456000
14.445000 10.931000 0.125000
14.018000 10.633000 -1.275000
14.472000 10.968000 -0.743000
14.473000 10.976000 -0.183000
14.113000 10.720000 -1.011000
14.438000 10.965000 -0.486000
14.395000 10.958000 0.093000
14.197000 10.843000 -1.326000
14.433000 11.008000 -0.773000
14.405000 10.989000 -0.212000
14.051000 10.742000 -1.038000
14.413000 11.012000 -0.517000
14.382000 11.010000 0.062000
14.383000 11.056000 -1.377000
14.361000 11.020000 -0.803000
14.341000 11.003000 -0.244000
14.091000 10.838000 -1.074000
14.341000 11.021000 -0.546000
14.312000 11.015000 0.031000
14.311000 11.069000 -1.404000
14.337000 11.065000 -0.835000
14.315000 11.043000 -0.276000
14.114000 10.921000 -1.110000
14.323000 11.068000 -0.579000
14.291000 11.055000 -0.001000
14.262000 11.097000 -1.435000
14.270000 11.074000 -0.864000
14.264000 11.060000 -0.307000
14.141000 11.003000 -1.146000
14.244000 11.063000 -0.609000
14.228000 11.059000 -0.034000
10.813000 8.461000 -1.115000
14.236000 11.106000 -0.897000
14.228000 11.086000 -0.341000
14.168000 11.082000 -1.183000
14.230000 11.106000 -0.642000
14.195000 11.083000 -0.066000
10.757000 8.462000 -1.136000
14.171000 11.110000 -0.928000
14.197000 11.110000 -0.373000
10.748000 8.450000 -0.925000
14.147000 11.093000 -0.673000
14.165000 11.106000 -0.100000
10.732000 8.485000 -1.161000
14.147000 11.142000 -0.960000
14.124000 11.100000 -0.404000
10.711000 8.461000 -0.948000
14.129000 11.126000 -0.707000
14.108000 11.103000 -0.134000
10.710000 8.509000 -1.187000
14.072000 11.132000 -0.991000
14.127000 11.146000 -0.440000
10.675000 8.469000 -0.972000
14.085000 11.136000 -0.739000
14.095000 11.132000 -0.166000
10.757000 8.585000 -1.220000
14.064000 11.170000 -1.026000
14.073000 11.143000 -0.473000
10.644000 8.480000 -0.997000
14.053000 11.152000 -0.773000
14.065000 11.145000 -0.202000
10.749000 8.614000 -1.247000
14.020000 11.177000 -1.058000
14.026000 11.142000 -0.505000
10.629000 8.500000 -1.023000
14.036000 11.176000 -0.808000
14.011000 11.134000 -0.235000
10.744000 8.644000 -1.276000
10.679000 8.542000 -0.834000
14.016000 11.167000 -0.541000
10.636000 8.535000 -1.051000
14.013000 11.191000 -0.841000
14.009000 11.161000 -0.269000
10.749000 8.679000 -1.305000
10.634000 8.532000 -0.858000
14.007000 11.189000 -0.576000
10.645000 8.570000 -1.081000
13.959000 11.178000 -0.874000
13.990000 11.171000 -0.305000
10.761000 8.717000 -1.335000
10.625000 8.549000 -0.884000
13.962000 11.179000 -0.609000
10.712000 8.648000 -1.115000
13.954000 11.201000 -0.910000
13.985000 11.188000 -0.340000
10.776000 8.755000 -1.367000
10.621000 8.566000 -0.912000
13.934000 11.178000 -0.643000
13.902000 11.252000 -1.485000
13.948000 11.220000 -0.945000
13.954000 11.181000 -0.374000
10.747000 8.753000 -1.392000
10.637000 8.597000 -0.941000
13.930000 11.193000 -0.679000
13.710000 11.121000 -1.502000
13.930000 11.225000 -0.981000
13.926000 11.173000 -0.409000
13.827000 11.287000 -1.828000
10.606000 8.587000 -0.966000
13.926000 11.204000 -0.714000
13.250000 10.768000 -1.486000
13.922000 11.233000 -1.016000
13.930000 11.187000 -0.445000
13.819000 11.303000 -1.866000
10.611000 8.604000 -0.995000
13.929000 11.217000 -0.750000
13.773000 11.211000 -1.581000
13.906000 11.232000 -1.050000
13.929000 11.192000 -0.480000
13.783000 11.291000 -1.898000
10.593000 8.599000 -1.021000
13.929000 11.225000 -0.787000
13.827000 11.268000 -1.625000
13.870000 11.212000 -1.085000
13.924000 11.191000 -0.515000
13.732000 11.264000 -1.928000
10.683000 8.678000 -1.057000
13.929000 11.227000 -0.822000
13.834000 11.283000 -1.662000
13.796000 11.156000 -1.114000
13.938000 11.201000 -0.552000
13.702000 11.249000 -1.962000
13.309000 10.815000 -1.353000
13.929000 11.226000 -0.857000
10.772000 8.789000 -1.322000
10.628000 8.595000 -0.885000
13.930000 11.190000 -0.587000
13.694000 11.248000 -1.997000
13.349000 10.849000 -1.392000
13.935000 11.227000 -0.894000
10.725000 8.753000 -1.346000
10.631000 8.595000 -0.914000
13.939000 11.188000 -0.622000
13.681000 11.241000 -2.031000
13.408000 10.894000 -1.432000
13.941000 11.224000 -0.929000
13.831000 11.286000 -1.771000
10.629000 8.587000 -0.941000
13.947000 11.182000 -0.659000
15.510000 12.742000 -2.345000
13.873000 11.264000 -1.518000
13.949000 11.218000 -0.965000
13.833000 11.282000 -1.807000
10.589000 8.547000 -0.963000
13.965000 11.180000 -0.694000
15.219000 12.496000 -2.340000
10.733000 8.706000 -1.202000
13.954000 11.207000 -1.001000
10.739000 8.750000 -1.431000
10.587000 8.534000 -0.991000
13.987000 11.178000 -0.730000
14.896000 12.220000 -2.329000
10.765000 8.721000 -1.232000
13.968000 11.198000 -1.036000
10.796000 8.786000 -1.466000
10.619000 8.545000 -1.020000
14.024000 11.184000 -0.767000
10.827000 8.872000 -1.722000
10.753000 8.697000 -1.258000
10.639000 8.512000 -0.815000
10.809000 8.783000 -1.495000
10.633000 8.539000 -1.047000
14.039000 11.168000 -0.801000
10.840000 8.869000 -1.751000
10.743000 8.672000 -1.284000
10.681000 8.525000 -0.845000
10.808000 8.766000 -1.522000
10.624000 8.512000 -1.072000
14.061000 11.155000 -0.836000
10.822000 8.837000 -1.775000
10.728000 8.639000 -1.308000
10.681000 8.500000 -0.870000
10.823000 8.758000 -1.550000
10.639000 8.502000 -1.100000
14.082000 11.137000 -0.872000
10.830000 8.825000 -1.804000
10.723000 8.613000 -1.333000
10.692000 8.483000 -0.896000
10.772000 8.694000 -1.569000
10.671000 8.501000 -1.127000
14.147000 11.150000 -0.909000
10.863000 8.829000 -1.835000
10.731000 8.593000 -1.360000
10.712000 8.470000 -0.924000
10.719000 8.626000 -1.588000
10.702000 8.498000 -1.156000
14.165000 11.122000 -0.942000
10.711000 8.679000 -1.834000
10.727000 8.561000 -1.384000
10.714000 8.440000 -0.948000
10.721000 8.599000 -1.612000
10.733000 8.491000 -1.184000
14.192000 11.098000 -0.978000
9.413000 7.602000 -1.635000
10.686000 8.497000 -1.403000
10.777000 8.456000 -0.978000
10.626000 8.492000 -1.622000
10.735000 8.459000 -1.208000
14.256000 11.099000 -1.013000
9.462000 7.615000 -1.664000
10.655000 8.439000 -1.423000
10.822000 8.454000 -1.007000
10.604000 8.441000 -1.643000
10.714000 8.406000 -1.229000
14.264000 11.054000 -1.045000
9.445000 7.571000 -1.682000
10.629000 8.381000 -1.442000
14.282000 11.104000 -1.359000
10.591000 8.395000 -1.663000
9.559000 7.465000 -1.118000
14.158000 10.917000 -1.069000
9.490000 7.576000 -1.712000
9.536000 7.485000 -1.314000
14.310000 11.071000 -1.392000
9.449000 7.455000 -1.504000
9.544000 7.416000 -1.136000
14.047000 10.774000 -1.089000
9.509000 7.555000 -1.735000
9.555000 7.462000 -1.338000
14.390000 11.074000 -1.431000
9.456000 7.424000 -1.526000
9.553000 7.385000 -1.157000
14.016000 10.690000 -1.115000
9.505000 7.515000 -1.753000
9.560000 7.427000 -1.357000
14.418000 11.032000 -1.462000
9.476000 7.401000 -1.547000
9.575000 7.360000 -1.179000
13.989000 10.606000 -1.143000
9.498000 7.470000 -1.771000
9.582000 7.403000 -1.379000
14.498000 11.028000 -1.499000
9.495000 7.375000 -1.569000
9.595000 7.332000 -1.200000
14.007000 10.554000 -1.171000
9.500000 7.430000 -1.790000
9.593000 7.368000 -1.400000
14.525000 10.980000 -1.531000
9.528000 7.357000 -1.592000
9.624000 7.310000 -1.222000
14.051000 10.519000 -1.201000
9.518000 7.401000 -1.811000
9.623000 7.345000 -1.422000
14.625000 10.984000 -1.568000
9.553000 7.331000 -1.615000
14.503000 10.945000 -1.869000
14.697000 10.929000 -1.285000
9.542000 7.373000 -1.833000
9.671000 7.334000 -1.446000
14.672000 10.946000 -1.599000
9.571000 7.298000 -1.635000
14.516000 10.880000 -1.896000
14.746000 10.888000 -1.315000
9.557000 7.337000 -1.853000
9.695000 7.302000 -1.468000
14.748000 10.925000 -1.635000
9.646000 7.305000 -1.664000
14.618000 10.880000 -1.934000
14.836000 10.875000 -1.349000
9.585000 7.308000 -1.874000
9.735000 7.281000 -1.489000
14.834000 10.908000 -1.668000
9.727000 7.314000 -1.694000
14.687000 10.852000 -1.969000
14.917000 10.850000 -1.382000
9.652000 7.308000 -1.903000
14.936000 11.089000 -2.310000
14.869000 10.851000 -1.697000
9.754000 7.281000 -1.714000
16.350000 11.989000 -2.217000
14.961000 10.798000 -1.410000
9.736000 7.316000 -1.935000
14.830000 10.926000 -2.318000
14.962000 10.833000 -1.733000
13.653000 10.114000 -2.421000
16.277000 11.842000 -2.233000
15.052000 10.776000 -1.443000
12.616000 9.408000 -2.526000
14.754000 10.784000 -2.327000
15.042000 10.802000 -1.764000
13.570000 9.973000 -2.426000
16.148001 11.653000 -2.240000
15.159000 10.762000 -1.478000
12.549000 9.284000 -2.531000
14.659000 10.628000 -2.333000
15.075000 10.736000 -1.790000
13.491000 9.834000 -2.431000
16.080000 11.506000 -2.253000
15.243000 10.729000 -1.508000
12.500000 9.171000 -2.538000
14.584000 10.484000 -2.343000
15.122000 10.676000 -1.818000
13.435000 9.711000 -2.439000
15.936000 11.305000 -2.255000
15.296000 10.671000 -1.534000
12.439000 9.049000 -2.541000
14.516000 10.345000 -2.350000
14.599000 10.215000 -1.775000
13.376000 9.583000 -2.445000
15.762000 11.082000 -2.252000
15.376000 10.630000 -1.563000
12.387000 8.933000 -2.546000
14.453000 10.208000 -2.358000
14.551000 10.089000 -1.788000
13.324000 9.461000 -2.452000
14.601000 10.172000 -2.104000
14.575000 9.981000 -1.501000
12.315000 8.800000 -2.545000
14.363000 10.051000 -2.362000
14.500000 9.960000 -1.800000
13.276000 9.341000 -2.459000
15.036000 10.377000 -2.184000
14.493000 9.830000 -1.511000
12.286000 8.698000 -2.553000
14.319000 9.925000 -2.370000
14.461000 9.837000 -1.812000
13.222000 9.214000 -2.463000
15.006000 10.257000 -2.198000
14.454000 9.708000 -1.524000
12.253000 8.592000 -2.559000
14.249000 9.782000 -2.374000
14.417000 9.711000 -1.823000
13.175000 9.092000 -2.468000
15.110000 10.226000 -2.229000
14.422000 9.589000 -1.538000
12.190000 8.463000 -2.557000
14.189000 9.643000 -2.380000
14.380000 9.589000 -1.835000
13.123000 8.967000 -2.471000
15.017000 10.061000 -2.231000
14.388000 9.469000 -1.550000
12.161000 8.359000 -2.562000
14.133000 9.507000 -2.383000
14.337000 9.460000 -1.844000
13.085000 8.848000 -2.476000
15.184000 10.068000 -2.272000
14.405000 9.381000 -1.567000
12.137000 8.257000 -2.568000
14.090000 9.380000 -2.389000
14.301000 9.338000 -1.853000
13.036000 8.724000 -2.478000
15.222000 9.986000 -2.290000
14.502000 9.343000 -1.593000
12.104000 8.147000 -2.570000
14.051000 9.255000 -2.395000
14.389000 9.295000 -1.878000
13.002000 8.609000 -2.482000
15.222000 9.879000 -2.304000
14.627000 9.320000 -1.620000
12.076000 8.041000 -2.573000
14.003000 9.123000 -2.398000
14.500000 9.263000 -1.906000
12.958000 8.485000 -2.484000
15.186000 9.747000 -2.312000
14.749000 9.295000 -1.647000
12.050000 7.937000 -2.576000
13.966000 8.998000 -2.402000
14.601000 9.224000 -1.931000
12.941000 8.380000 -2.489000
15.012000 9.527000 -2.296000
14.840000 9.245000 -1.670000
12.033000 7.836000 -2.580000
13.924000 8.870000 -2.404000
14.708000 9.186000 -1.957000
12.899000 8.259000 -2.489000
14.783000 9.275000 -2.272000
14.894000 9.172000 -1.688000
12.007000 7.730000 -2.581000
13.891000 8.747000 -2.408000
14.845000 9.163000 -1.986000
12.873000 8.146000 -2.492000
14.872000 9.222000 -2.295000
15.005000 9.132000 -1.712000
11.982000 7.624000 -2.581000
13.849000 8.618000 -2.409000
14.939000 9.113000 -2.009000
12.848000 8.034000 -2.494000
14.968000 9.170000 -2.320000
15.097000 9.077000 -1.733000
11.968000 7.523000 -2.584000
13.821000 8.498000 -2.412000
15.342000 9.246000 -2.073000
12.832000 7.929000 -2.497000
14.969000 9.061000 -2.329000
15.213000 9.036000 -1.757000
11.952000 7.422000 -2.585000
13.789000 8.374000 -2.413000
15.806000 9.408000 -2.145000
12.828000 7.828000 -2.502000
14.913000 8.917000 -2.328000
15.329000 8.993000 -1.780000
11.938000 7.323000 -2.587000
13.771000 8.260000 -2.416000
16.136000 9.485000 -2.199000
12.790000 7.708000 -2.500000
14.904000 8.799000 -2.334000
15.455000 8.952000 -1.803000
11.939000 7.231000 -2.591000
13.748000 8.143000 -2.418000
16.150999 9.374000 -2.209000
12.789000 7.610000 -2.504000
14.867000 8.666000 -2.335000
15.587000 8.913000 -1.827000
11.918000 7.126000 -2.589000
13.736000 8.031000 -2.421000
15.582000 8.926000 -2.139000
12.762000 7.495000 -2.503000
14.846000 8.542000 -2.337000
17.708000 9.995000 -2.085000
11.911000 7.030000 -2.590000
13.687000 7.898000 -2.417000
16.156000 9.135000 -2.224000
12.754000 7.393000 -2.505000
14.829000 8.419000 -2.340000
17.674999 9.843000 -2.089000
11.904000 6.931000 -2.591000
13.699000 7.801000 -2.423000
16.120001 8.994000 -2.226000
12.749000 7.292000 -2.506000
14.799000 8.290000 -2.340000
17.638000 9.691000 -2.092000
11.910000 6.842000 -2.594000
13.681000 7.685000 -2.423000
16.077999 8.848000 -2.226000
12.743000 7.189000 -2.508000
14.781000 8.168000 -2.341000
17.589001 9.533000 -2.093000
11.901000 6.745000 -2.594000
13.683000 7.582000 -2.427000
16.084000 8.731000 -2.232000
12.737000 7.087000 -2.508000
14.762000 8.045000 -2.342000
17.561001 9.385000 -2.096000
11.891000 6.645000 -2.591000
13.675000 7.472000 -2.428000
16.065001 8.600000 -2.234000
12.730000 6.986000 -2.509000
14.750000 7.926000 -2.344000
17.531000 9.239000 -2.098000
11.905000 6.559000 -2.595000
13.662000 7.359000 -2.427000
16.045000 8.466000 -2.235000
12.736000 6.889000 -2.510000
14.743000 7.811000 -2.345000
17.520000 9.102000 -2.102000
11.902000 6.464000 -2.595000
13.657000 7.252000 -2.428000
16.018000 8.332000 -2.235000
12.734000 6.789000 -2.511000
14.708000 7.678000 -2.342000
17.493999 8.955000 -2.103000
11.899000 6.369000 -2.593000
13.647000 7.142000 -2.428000
16.010000 8.207000 -2.237000
12.737000 6.691000 -2.511000
14.694000 7.559000 -2.341000
17.480000 8.817000 -2.105000
11.904000 6.277000 -2.594000
13.650000 7.037000 -2.429000
16.011999 8.085000 -2.239000
12.746000 6.597000 -2.512000
14.688000 7.445000 -2.342000
17.469999 8.682000 -2.107000
11.903000 6.183000 -2.592000
13.645000 6.929000 -2.428000
15.989000 7.953000 -2.238000
12.749000 6.499000 -2.513000
14.695000 7.335000 -2.344000
17.465000 8.547000 -2.110000
11.906000 6.090000 -2.591000
13.657000 6.831000 -2.430000
16.004999 7.840000 -2.242000
12.767000 6.409000 -2.515000
14.698000 7.224000 -2.345000
17.454000 8.411000 -2.111000
11.919000 6.002000 -2.592000
13.634000 6.713000 -2.425000
15.990000 7.711000 -2.241000
12.753000 6.302000 -2.511000
14.692000 7.110000 -2.344000
17.426001 8.267000 -2.109000
11.921000 5.910000 -2.590000
13.667000 6.624000 -2.431000
15.969000 7.580000 -2.239000
12.740000 6.196000 -2.507000
14.708000 7.004000 -2.346000
17.433001 8.138000 -2.112000
11.942000 5.826000 -2.592000
13.667000 6.520000 -2.429000
15.954000 7.453000 -2.237000
12.757000 6.106000 -2.508000
14.703000 6.891000 -2.345000
17.434999 8.010000 -2.113000
11.944000 5.733000 -2.590000
13.687000 6.423000 -2.431000
15.964000 7.336000 -2.238000
12.785000 6.019000 -2.511000
14.706000 6.780000 -2.344000
17.427000 7.876000 -2.113000
11.954000 5.644000 -2.589000
13.695000 6.322000 -2.431000
15.955000 7.212000 -2.236000
12.777000 5.917000 -2.508000
14.717000 6.672000 -2.345000
17.426001 7.745000 -2.112000
11.974000 5.559000 -2.590000
13.701000 6.220000 -2.430000
15.964000 7.097000 -2.237000
12.782000 5.820000 -2.506000
14.725000 6.565000 -2.344000
17.443001 7.622000 -2.115000
11.986000 5.470000 -2.589000
13.690000 6.109000 -2.425000
15.943000 6.967000 -2.232000
12.800000 5.729000 -2.506000
14.729000 6.456000 -2.343000
17.429001 7.487000 -2.113000
11.986000 5.377000 -2.586000
13.693000 6.006000 -2.423000
15.974000 6.861000 -2.236000
12.821000 5.639000 -2.507000
14.738000 6.347000 -2.342000
17.430000 7.357000 -2.112000
12.003000 5.291000 -2.585000
13.724000 5.915000 -2.426000
15.903000 6.712000 -2.224000
12.818000 5.540000 -2.503000
14.756000 6.244000 -2.343000
17.434000 7.230000 -2.112000
12.010000 5.200000 -2.583000
13.724000 5.810000 -2.423000
15.922000 6.601000 -2.225000
12.836000 5.448000 -2.502000
14.757000 6.133000 -2.340000
17.382000 7.080000 -2.104000
12.017000 5.110000 -2.580000
13.734000 5.710000 -2.421000
15.907000 6.475000 -2.221000
12.845000 5.354000 -2.501000
14.783000 6.032000 -2.341000
17.260000 6.902000 -2.087000
12.032000 5.023000 -2.578000
13.738000 5.608000 -2.418000
15.953000 6.375000 -2.225000
12.855000 5.260000 -2.499000
14.798000 5.928000 -2.341000
17.112000 6.717000 -2.068000
12.045000 4.935000 -2.577000
13.779000 5.519000 -2.422000
15.966000 6.262000 -2.223000
12.868000 5.166000 -2.496000
14.812000 5.823000 -2.340000
17.105000 6.589000 -2.065000
12.068000 4.851000 -2.577000
13.784000 5.418000 -2.419000
15.966000 6.143000 -2.221000
12.885000 5.075000 -2.496000
14.822000 5.715000 -2.338000
16.976999 6.414000 -2.047000
12.086000 4.766000 -2.575000
13.795000 5.319000 -2.417000
15.969000 6.027000 -2.219000
12.907000 4.986000 -2.496000
14.840000 5.612000 -2.337000
16.847000 6.241000 -2.029000
12.105000 4.680000 -2.575000
13.815000 5.221000 -2.416000
16.046000 5.937000 -2.226000
12.908000 4.888000 -2.491000
14.884000 5.518000 -2.340000
16.882000 6.132000 -2.031000
12.124000 4.595000 -2.574000
13.836000 5.126000 -2.416000
16.077999 5.831000 -2.227000
12.930000 4.798000 -2.491000
14.884000 5.408000 -2.336000
16.851999 5.998000 -2.024000
12.137000 4.507000 -2.571000
13.853000 5.029000 -2.414000
16.070000 5.710000 -2.222000
12.934000 4.703000 -2.486000
14.911000 5.307000 -2.336000
16.825001 5.866000 -2.018000
12.156000 4.421000 -2.570000
13.870000 4.932000 -2.412000
16.077999 5.595000 -2.219000
12.960000 4.615000 -2.486000
14.931000 5.204000 -2.335000
16.862000 5.756000 -2.019000
12.167000 4.333000 -2.567000
13.872000 4.829000 -2.408000
16.051001 5.468000 -2.212000
12.975000 4.522000 -2.484000
14.929000 5.094000 -2.330000
16.931000 5.657000 -2.024000
12.192000 4.249000 -2.566000
13.897000 4.735000 -2.408000
16.063999 5.356000 -2.210000
12.987000 4.430000 -2.482000
14.962000 4.995000 -2.332000
16.989000 5.554000 -2.028000
12.203000 4.160000 -2.563000
13.909000 4.636000 -2.405000
16.052999 5.236000 -2.204000
13.005000 4.339000 -2.479000
14.950000 4.882000 -2.325000
17.035999 5.447000 -2.030000
12.223000 4.076000 -2.562000
13.932000 4.541000 -2.404000
16.104000 5.135000 -2.208000
13.010000 4.243000 -2.476000
14.962000 4.776000 -2.322000
17.056000 5.331000 -2.028000
12.246000 3.991000 -2.561000
13.937000 4.441000 -2.401000
16.153000 5.035000 -2.210000
13.035000 4.155000 -2.475000
15.005000 4.680000 -2.325000
17.027000 5.199000 -2.022000
12.266000 3.905000 -2.560000
13.954000 4.343000 -2.398000
16.118999 4.908000 -2.201000
13.064000 4.067000 -2.475000
15.031000 4.580000 -2.324000
17.024000 5.078000 -2.017000
12.296000 3.824000 -2.561000
13.972000 4.246000 -2.396000
16.080999 4.780000 -2.192000
13.081000 3.976000 -2.473000
15.045000 4.475000 -2.321000
16.995001 4.948000 -2.010000
12.300000 3.733000 -2.555000
14.002000 4.154000 -2.397000
16.084999 4.666000 -2.188000
13.108000 3.888000 -2.473000
15.077000 4.375000 -2.322000
17.011000 4.831000 -2.008000
12.332000 3.651000 -2.557000
14.022000 4.057000 -2.395000
16.108999 4.558000 -2.187000
13.117000 3.794000 -2.469000
15.098000 4.273000 -2.320000
16.937000 4.690000 -1.996000
12.351000 3.565000 -2.555000
14.045000 3.962000 -2.394000
16.083000 4.436000 -2.179000
13.132000 3.703000 -2.467000
15.115000 4.169000 -2.318000
16.791000 4.531000 -1.974000
12.375000 3.481000 -2.554000
14.047000 3.861000 -2.389000
16.063000 4.316000 -2.172000
13.163000 3.616000 -2.468000
15.151000 4.070000 -2.319000
16.632000 4.371000 -1.952000
12.393000 3.395000 -2.553000
14.066000 3.764000 -2.387000
16.051001 4.199000 -2.166000
13.188000 3.526000 -2.467000
15.163000 3.965000 -2.316000
16.534000 4.229000 -1.937000
12.401000 3.306000 -2.549000
14.087000 3.668000 -2.387000
15.998000 4.071000 -2.155000
13.198000 3.433000 -2.464000
15.148000 3.853000 -2.309000
16.451000 4.092000 -1.923000
12.421000 3.220000 -2.548000
14.115000 3.575000 -2.387000
15.971000 3.952000 -2.147000
13.223000 3.344000 -2.464000
15.221000 3.762000 -2.316000
16.388000 3.961000 -1.912000
12.449000 3.136000 -2.548000
14.129000 3.476000 -2.383000
15.951000 3.835000 -2.140000
13.235000 3.251000 -2.461000
15.201000 3.650000 -2.308000
16.575001 3.891000 -1.930000
12.458000 3.048000 -2.545000
14.153000 3.381000 -2.383000
16.011999 3.736000 -2.144000
13.264000 3.163000 -2.461000
15.217000 3.546000 -2.306000
16.650000 3.792000 -1.935000
12.482000 2.963000 -2.544000
14.170000 3.284000 -2.381000
16.171000 3.660000 -2.161000
13.272000 3.069000 -2.458000
15.210000 3.436000 -2.300000
16.666000 3.680000 -1.933000
12.497000 2.876000 -2.543000
14.194000 3.189000 -2.381000
16.194000 3.552000 -2.160000
13.302000 2.980000 -2.459000
15.237000 3.335000 -2.300000
16.658001 3.563000 -1.929000
12.511000 2.788000 -2.541000
14.216000 3.092000 -2.380000
16.222000 3.444000 -2.160000
13.323000 2.890000 -2.458000
15.235000 3.228000 -2.295000
16.698000 3.455000 -1.929000
12.535000 2.703000 -2.540000
14.223000 2.993000 -2.377000
16.242001 3.336000 -2.158000
13.343000 2.799000 -2.457000
15.256000 3.125000 -2.294000
16.827999 3.365000 -1.941000
12.529000 2.612000 -2.535000
14.244000 2.897000 -2.376000
16.340000 3.242000 -2.167000
13.368000 2.709000 -2.457000
15.277000 3.022000 -2.293000
16.889000 3.262000 -1.945000
12.559000 2.528000 -2.536000
14.265000 2.800000 -2.375000
16.427999 3.146000 -2.175000
13.369000 2.614000 -2.453000
15.252000 2.910000 -2.285000
16.922001 3.151000 -1.945000
12.591000 2.444000 -2.538000
14.281000 2.703000 -2.374000
16.434999 3.033000 -2.173000
13.394000 2.524000 -2.454000
15.305000 2.813000 -2.290000
16.910999 3.034000 -1.940000
12.618000 2.359000 -2.539000
14.299000 2.606000 -2.372000
16.409000 2.914000 -2.165000
13.408000 2.431000 -2.452000
15.363000 2.718000 -2.295000
16.889999 2.913000 -1.935000
12.611000 2.267000 -2.534000
14.335000 2.511000 -2.375000
16.368999 2.795000 -2.156000
13.421000 2.339000 -2.450000
15.360000 2.610000 -2.290000
16.872999 2.795000 -1.930000
12.624000 2.179000 -2.532000
14.351000 2.414000 -2.374000
16.350000 2.678000 -2.151000
13.444000 2.248000 -2.451000
15.314000 2.495000 -2.280000
16.827999 2.673000 -1.921000
12.646000 2.094000 -2.533000
14.339000 2.312000 -2.368000
16.379999 2.570000 -2.151000
13.468000 2.157000 -2.451000
15.327000 2.392000 -2.279000
16.788000 2.551000 -1.914000
12.649000 2.004000 -2.530000
14.384000 2.218000 -2.372000
16.364000 2.456000 -2.146000
13.486000 2.066000 -2.451000
15.407000 2.298000 -2.287000
16.809999 2.440000 -1.914000
12.663000 1.916000 -2.528000
14.397000 2.120000 -2.371000
16.295000 2.333000 -2.134000
13.467000 1.968000 -2.445000
15.423000 2.193000 -2.287000
16.802999 2.325000 -1.910000
12.688000 1.831000 -2.530000
14.398000 2.020000 -2.368000
16.289000 2.220000 -2.130000
13.496000 1.877000 -2.446000
15.405000 2.084000 -2.281000
16.849001 2.216000 -1.914000
12.689000 1.741000 -2.527000
14.436000 1.925000 -2.371000
16.261999 2.106000 -2.124000
13.516000 1.786000 -2.447000
15.415000 1.979000 -2.280000
16.836000 2.100000 -1.909000
12.692000 1.651000 -2.524000
14.450000 1.827000 -2.371000
16.323000 2.002000 -2.130000
13.509000 1.690000 -2.443000
15.424000 1.875000 -2.278000
16.813000 1.983000 -1.905000
12.702000 1.564000 -2.524000
14.448000 1.726000 -2.368000
16.296000 1.887000 -2.124000
13.515000 1.596000 -2.441000
15.469000 1.774000 -2.283000
16.851999 1.873000 -1.907000
12.732000 1.477000 -2.527000
14.446000 1.627000 -2.365000
16.285000 1.775000 -2.120000
13.507000 1.502000 -2.437000
15.490000 1.669000 -2.284000
16.837000 1.757000 -1.904000
12.746000 1.389000 -2.527000
14.473000 1.529000 -2.367000
16.291000 1.664000 -2.120000
13.533000 1.410000 -2.440000
15.510000 1.566000 -2.284000
16.907000 1.651000 -1.910000
12.775000 1.303000 -2.531000
14.447000 1.427000 -2.361000
16.349001 1.559000 -2.125000
13.542000 1.316000 -2.439000
15.508000 1.459000 -2.282000
16.872000 1.533000 -1.905000
12.757000 1.211000 -2.525000
14.489000 1.331000 -2.366000
16.396000 1.452000 -2.130000
13.555000 1.224000 -2.440000
15.544000 1.355000 -2.286000
16.877001 1.419000 -1.904000
12.770000 1.123000 -2.526000
14.483000 1.230000 -2.363000
16.389000 1.340000 -2.127000
13.566000 1.130000 -2.441000
15.592000 1.253000 -2.292000
16.885000 1.306000 -1.904000
12.782000 1.035000 -2.526000
14.458000 1.128000 -2.358000
16.334000 1.224000 -2.119000
13.596000 1.038000 -2.444000
15.568000 1.144000 -2.287000
16.919001 1.194000 -1.907000
12.793000 0.946000 -2.527000
14.518000 1.033000 -2.366000
16.350000 1.115000 -2.120000
13.633000 0.947000 -2.450000
15.543000 1.036000 -2.282000
16.908001 1.079000 -1.905000
12.817000 0.858000 -2.531000
14.555000 0.935000 -2.371000
16.344000 1.003000 -2.119000
13.632000 0.852000 -2.449000
15.571000 0.932000 -2.285000
16.863001 0.963000 -1.899000
12.836000 0.770000 -2.533000
14.569000 0.836000 -2.372000
16.358000 0.892000 -2.120000
13.598000 0.755000 -2.442000
15.619000 0.828000 -2.292000
16.855000 0.848000 -1.898000
12.844000 0.680000 -2.534000
14.585000 0.737000 -2.375000
16.382999 0.783000 -2.123000
13.663000 0.664000 -2.453000
15.639000 0.722000 -2.294000
16.870001 0.735000 -1.899000
12.834000 0.589000 -2.532000
14.557000 0.635000 -2.370000
16.344000 0.670000 -2.118000
13.641000 0.569000 -2.448000
15.663000 0.616000 -2.298000
16.870001 0.622000 -1.899000
12.814000 0.499000 -2.527000
14.517000 0.533000 -2.363000
16.375999 0.560000 -2.122000
13.667000 0.475000 -2.453000
15.630000 0.508000 -2.293000
16.881001 0.508000 -1.901000
12.853000 0.411000 -2.535000
14.606000 0.436000 -2.377000
16.384001 0.450000 -2.123000
13.655000 0.380000 -2.451000
15.641000 0.401000 -2.295000
16.839001 0.393000 -1.897000
12.871000 0.321000 -2.539000
14.629000 0.336000 -2.382000
16.384001 0.338000 -2.124000
13.701000 0.287000 -2.459000
15.714000 0.296000 -2.306000
16.849001 0.280000 -1.899000
12.853000 0.231000 -2.535000
14.599000 0.234000 -2.377000
16.393999 0.227000 -2.126000
13.640000 0.190000 -2.449000
15.627000 0.187000 -2.294000
16.875999 0.167000 -1.903000
12.847000 0.142000 -2.535000
14.597000 0.134000 -2.378000
16.399000 0.116000 -2.127000
13.658000 0.096000 -2.453000
15.640000 0.080000 -2.297000
16.872000 0.052000 -1.903000
12.837000 0.050000 -2.534000
14.573000 0.033000 -2.375000
16.431999 0.004000 -2.133000
13.673000 0.001000 -2.457000
15.681000 -0.026000 -2.304000
16.885000 -0.060000 -1.906000
12.787000 -0.038000 -2.525000
14.603000 -0.067000 -2.381000
16.466999 -0.107000 -2.139000
13.672000 -0.094000 -2.458000
15.723000 -0.134000 -2.312000
16.855000 -0.174000 -1.904000
12.843000 -0.128000 -2.538000
14.593000 -0.167000 -2.381000
16.360001 -0.217000 -2.126000
13.654000 -0.188000 -2.456000
15.570000 -0.239000 -2.291000
16.806000 -0.288000 -1.900000
12.834000 -0.218000 -2.537000
14.539000 -0.267000 -2.374000
16.242001 -0.327000 -2.113000
13.625000 -0.282000 -2.453000
15.533000 -0.345000 -2.288000
16.784000 -0.401000 -1.900000
12.809000 -0.307000 -2.534000
14.552000 -0.368000 -2.378000
16.062000 -0.433000 -2.092000
13.611000 -0.378000 -2.452000
15.500000 -0.451000 -2.285000
16.801001 -0.515000 -1.904000
12.807000 -0.397000 -2.536000
14.542000 -0.468000 -2.378000
16.059999 -0.542000 -2.094000
13.633000 -0.473000 -2.459000
15.485000 -0.557000 -2.285000
16.795000 -0.629000 -1.906000
12.787000 -0.487000 -2.534000
14.526000 -0.568000 -2.378000
16.235001 -0.658000 -2.119000
13.617000 -0.567000 -2.458000
15.501000 -0.664000 -2.290000
16.805000 -0.743000 -1.910000
12.786000 -0.577000 -2.537000
14.542000 -0.670000 -2.384000
16.259001 -0.772000 -2.125000
13.618000 -0.663000 -2.461000
15.559000 -0.774000 -2.302000
16.806999 -0.857000 -1.913000
12.766000 -0.666000 -2.536000
14.539000 -0.770000 -2.386000
16.295000 -0.884000 -2.133000
13.595000 -0.757000 -2.460000
15.618000 -0.885000 -2.314000
16.797001 -0.972000 -1.915000
12.760000 -0.757000 -2.537000
14.514000 -0.870000 -2.385000
16.252001 -0.993000 -2.131000
13.606000 -0.852000 -2.465000
15.680000 -0.997000 -2.326000
16.768000 -1.084000 -1.915000
12.754000 -0.846000 -2.540000
14.524000 -0.972000 -2.390000
16.257999 -1.106000 -2.135000
13.565000 -0.946000 -2.461000
15.615000 -1.100000 -2.320000
16.761000 -1.198000 -1.918000
12.733000 -0.934000 -2.539000
14.507000 -1.071000 -2.391000
16.266001 -1.217000 -2.140000
13.560000 -1.040000 -2.464000
15.519000 -1.201000 -2.310000
16.797001 -1.315000 -1.926000
12.717000 -1.024000 -2.540000
14.460000 -1.169000 -2.388000
16.230000 -1.327000 -2.139000
13.559000 -1.135000 -2.468000
15.503000 -1.307000 -2.312000
16.754999 -1.427000 -1.925000
12.666000 -1.110000 -2.534000
14.447000 -1.269000 -2.390000
16.202000 -1.437000 -2.140000
13.532000 -1.229000 -2.468000
15.536000 -1.419000 -2.321000
16.764999 -1.543000 -1.930000
12.656000 -1.199000 -2.536000
14.430000 -1.369000 -2.391000
16.204000 -1.549000 -2.145000
13.475000 -1.319000 -2.462000
15.505000 -1.524000 -2.321000
16.742001 -1.656000 -1.932000
12.651000 -1.290000 -2.540000
14.436000 -1.471000 -2.397000
16.188999 -1.660000 -2.147000
13.501000 -1.417000 -2.471000
15.485000 -1.630000 -2.323000
16.781000 -1.775000 -1.941000
12.640000 -1.379000 -2.542000
14.415000 -1.571000 -2.398000
16.216000 -1.776000 -2.156000
13.469000 -1.511000 -2.470000
15.434000 -1.733000 -2.320000
16.747000 -1.888000 -1.942000
12.632000 -1.468000 -2.546000
14.387000 -1.669000 -2.399000
16.229000 -1.890000 -2.163000
13.437000 -1.602000 -2.470000
15.421000 -1.840000 -2.324000
16.782000 -2.009000 -1.952000
12.622000 -1.559000 -2.549000
14.373000 -1.770000 -2.402000
16.181000 -1.997000 -2.162000
13.441000 -1.699000 -2.476000
15.411000 -1.947000 -2.328000
16.782000 -2.125000 -1.957000
12.617000 -1.649000 -2.554000
14.223000 -1.853000 -2.383000
16.201000 -2.114000 -2.170000
13.414000 -1.792000 -2.477000
15.390000 -2.054000 -2.331000
16.797001 -2.243000 -1.964000
12.602000 -1.738000 -2.557000
14.325000 -1.968000 -2.406000
16.195000 -2.227000 -2.175000
13.390000 -1.885000 -2.478000
15.354000 -2.158000 -2.331000
16.788000 -2.361000 -1.969000
12.600000 -1.830000 -2.563000
14.306000 -2.068000 -2.409000
16.198999 -2.341000 -2.182000
13.360000 -1.977000 -2.479000
15.319000 -2.261000 -2.332000
16.740000 -2.471000 -1.970000
12.563000 -1.916000 -2.561000
14.268000 -2.165000 -2.409000
16.171000 -2.452000 -2.185000
13.338000 -2.071000 -2.481000
15.284000 -2.366000 -2.334000
16.732000 -2.586000 -1.975000
12.536000 -2.003000 -2.563000
14.263000 -2.266000 -2.414000
16.150999 -2.563000 -2.189000
13.308000 -2.163000 -2.482000
15.198000 -2.461000 -2.327000
16.702999 -2.701000 -1.978000
12.515000 -2.093000 -2.565000
14.142000 -2.349000 -2.400000
16.079000 -2.666000 -2.186000
13.297000 -2.257000 -2.487000
15.204000 -2.571000 -2.335000
16.684999 -2.816000 -1.983000
12.483000 -2.179000 -2.566000
14.188000 -2.460000 -2.416000
16.062000 -2.779000 -2.190000
13.272000 -2.351000 -2.490000
15.166000 -2.674000 -2.336000
16.715000 -2.939000 -1.993000
12.465000 -2.268000 -2.569000
14.129000 -2.552000 -2.413000
16.080000 -2.896000 -2.200000
13.239000 -2.442000 -2.491000
15.097000 -2.771000 -2.333000
16.674999 -3.052000 -1.996000
12.447000 -2.358000 -2.573000
14.084000 -2.647000 -2.412000
16.039000 -3.004000 -2.202000
13.203000 -2.532000 -2.492000
15.043000 -2.870000 -2.333000
16.704000 -3.176000 -2.006000
12.429000 -2.447000 -2.577000
14.046000 -2.743000 -2.414000
16.052999 -3.124000 -2.212000
13.133000 -2.617000 -2.486000
15.019000 -2.974000 -2.337000
16.683001 -3.291000 -2.011000
12.381000 -2.529000 -2.575000
13.969000 -2.830000 -2.408000
16.044001 -3.237000 -2.218000
13.119000 -2.711000 -2.492000
14.975000 -3.076000 -2.338000
16.684000 -3.413000 -2.019000
12.337000 -2.614000 -2.574000
13.951000 -2.929000 -2.413000
16.027000 -3.350000 -2.224000
13.060000 -2.796000 -2.488000
14.957000 -3.182000 -2.343000
16.680000 -3.532000 -2.027000
12.312000 -2.702000 -2.577000
13.906000 -3.024000 -2.414000
16.031000 -3.469000 -2.233000
13.030000 -2.888000 -2.491000
14.888000 -3.277000 -2.341000
16.672001 -3.651000 -2.034000
12.257000 -2.782000 -2.574000
13.864000 -3.118000 -2.415000
15.978000 -3.574000 -2.234000
13.021000 -2.984000 -2.498000
14.868000 -3.383000 -2.346000
16.715000 -3.784000 -2.047000
12.257000 -2.877000 -2.583000
13.818000 -3.210000 -2.415000
15.943000 -3.683000 -2.238000
12.977000 -3.072000 -2.498000
14.805000 -3.479000 -2.345000
16.736000 -3.910000 -2.059000
12.200000 -2.956000 -2.580000
13.812000 -3.314000 -2.423000
15.920000 -3.797000 -2.243000
12.925000 -3.159000 -2.497000
14.758000 -3.577000 -2.346000
16.735001 -4.033000 -2.067000
12.142000 -3.035000 -2.577000
13.776000 -3.408000 -2.426000
15.851000 -3.898000 -2.243000
12.915000 -3.254000 -2.505000
14.727000 -3.682000 -2.351000
16.773001 -4.167000 -2.081000
12.097000 -3.119000 -2.577000
13.751000 -3.506000 -2.431000
15.820000 -4.008000 -2.247000
12.880000 -3.344000 -2.507000
14.679000 -3.780000 -2.352000
16.811001 -4.301000 -2.095000
12.082000 -3.208000 -2.584000
13.707000 -3.601000 -2.433000
15.788000 -4.120000 -2.252000
12.846000 -3.435000 -2.510000
14.618000 -3.875000 -2.352000
16.884001 -4.445000 -2.113000
12.073000 -3.300000 -2.591000
13.674000 -3.696000 -2.436000
15.754000 -4.229000 -2.257000
12.817000 -3.527000 -2.514000
14.613000 -3.986000 -2.361000
16.861000 -4.567000 -2.120000
12.006000 -3.376000 -2.587000
13.619000 -3.786000 -2.436000
15.711000 -4.336000 -2.260000
12.746000 -3.606000 -2.510000
14.553000 -4.081000 -2.361000
16.875999 -4.698000 -2.131000
11.996000 -3.469000 -2.595000
13.587000 -3.884000 -2.440000
15.667000 -4.445000 -2.264000
12.734000 -3.703000 -2.518000
14.532000 -4.186000 -2.367000
16.858999 -4.821000 -2.139000
11.962000 -3.554000 -2.598000
13.530000 -3.972000 -2.440000
15.636000 -4.555000 -2.269000
12.702000 -3.794000 -2.522000
14.492000 -4.288000 -2.371000
16.867001 -4.953000 -2.150000
11.922000 -3.638000 -2.600000
13.519000 -4.075000 -2.448000
15.592000 -4.662000 -2.273000
12.669000 -3.885000 -2.526000
14.456000 -4.390000 -2.375000
16.854000 -5.078000 -2.158000
11.890000 -3.724000 -2.603000
13.484000 -4.172000 -2.452000
15.530000 -4.765000 -2.274000
12.632000 -3.975000 -2.529000
14.422000 -4.492000 -2.380000
16.799000 -5.190000 -2.161000
11.860000 -3.810000 -2.608000
13.448000 -4.267000 -2.456000
15.497000 -4.876000 -2.280000
12.577000 -4.059000 -2.529000
14.375000 -4.592000 -2.383000
16.757999 -5.309000 -2.166000
11.803000 -3.888000 -2.606000
13.423000 -4.366000 -2.462000
15.451000 -4.982000 -2.283000
12.567000 -4.156000 -2.537000
14.340000 -4.694000 -2.388000
16.697001 -5.419000 -2.169000
11.765000 -3.973000 -2.609000
13.376000 -4.459000 -2.464000
15.458000 -5.107000 -2.295000
12.525000 -4.245000 -2.540000
14.301000 -4.795000 -2.392000
16.666000 -5.539000 -2.175000
11.750000 -4.064000 -2.617000
13.336000 -4.553000 -2.468000
15.366000 -5.198000 -2.292000
12.484000 -4.334000 -2.543000
14.266000 -4.899000 -2.397000
16.621000 -5.656000 -2.180000
11.710000 -4.148000 -2.620000
13.303000 -4.649000 -2.473000
15.349000 -5.315000 -2.300000
12.448000 -4.424000 -2.547000
14.209000 -4.994000 -2.398000
16.558001 -5.766000 -2.182000
11.666000 -4.231000 -2.621000
13.265000 -4.746000 -2.477000
15.310000 -5.425000 -2.306000
12.412000 -4.514000 -2.551000
14.170000 -5.095000 -2.403000
16.504999 -5.879000 -2.186000
11.632000 -4.316000 -2.625000
13.214000 -4.837000 -2.479000
15.261000 -5.532000 -2.309000
12.369000 -4.602000 -2.553000
14.131000 -5.198000 -2.407000
16.462000 -5.997000 -2.192000
11.593000 -4.401000 -2.629000
13.191000 -4.937000 -2.486000
15.204000 -5.634000 -2.311000
12.334000 -4.693000 -2.558000
14.099000 -5.302000 -2.413000
16.415001 -6.113000 -2.196000
11.556000 -4.486000 -2.632000
13.140000 -5.029000 -2.488000
15.179000 -5.750000 -2.319000
12.291000 -4.781000 -2.561000
14.081000 -5.412000 -2.421000
16.351000 -6.222000 -2.198000
11.519000 -4.571000 -2.636000
13.092000 -5.121000 -2.490000
15.117000 -5.852000 -2.320000
12.247000 -4.869000 -2.563000
14.032000 -5.512000 -2.424000
16.306999 -6.340000 -2.203000
11.474000 -4.653000 -2.638000
13.044000 -5.212000 -2.492000
15.082000 -5.963000 -2.326000
12.201000 -4.956000 -2.565000
13.981000 -5.609000 -2.427000
16.259001 -6.457000 -2.207000
11.440000 -4.740000 -2.642000
13.008000 -5.310000 -2.497000
15.022000 -6.066000 -2.328000
12.162000 -5.046000 -2.569000
13.930000 -5.707000 -2.429000
16.209000 -6.571000 -2.211000
11.404000 -4.826000 -2.646000
12.961000 -5.402000 -2.500000
14.947000 -6.162000 -2.327000
12.118000 -5.134000 -2.572000
13.871000 -5.803000 -2.431000
16.174999 -6.694000 -2.218000
11.348000 -4.904000 -2.646000
12.928000 -5.501000 -2.505000
14.899000 -6.269000 -2.331000
12.088000 -5.228000 -2.578000
13.837000 -5.908000 -2.436000
16.113001 -6.805000 -2.220000
11.337000 -5.001000 -2.655000
12.869000 -5.589000 -2.506000
14.871000 -6.385000 -2.338000
12.034000 -5.312000 -2.579000
13.794000 -6.009000 -2.440000
16.068001 -6.922000 -2.225000
11.289000 -5.082000 -2.657000
12.853000 -5.696000 -2.514000
14.828000 -6.495000 -2.342000
12.005000 -5.407000 -2.584000
13.753000 -6.112000 -2.445000
16.025000 -7.042000 -2.230000
11.243000 -5.165000 -2.659000
12.829000 -5.799000 -2.521000
14.784000 -6.604000 -2.346000
11.949000 -5.490000 -2.584000
13.714000 -6.217000 -2.449000
15.975000 -7.159000 -2.234000
11.207000 -5.252000 -2.663000
12.777000 -5.890000 -2.523000
14.747000 -6.718000 -2.352000
11.921000 -5.586000 -2.591000
13.665000 -6.316000 -2.452000
15.924000 -7.275000 -2.237000
11.170000 -5.338000 -2.667000
12.735000 -5.987000 -2.527000
14.697000 -6.826000 -2.355000
11.880000 -5.677000 -2.594000
13.641000 -6.427000 -2.459000
15.878000 -7.394000 -2.242000
11.129000 -5.424000 -2.670000
12.691000 -6.082000 -2.530000
14.645000 -6.932000 -2.358000
11.833000 -5.764000 -2.596000
13.584000 -6.524000 -2.460000
15.833000 -7.514000 -2.246000
11.093000 -5.512000 -2.674000
12.647000 -6.177000 -2.533000
14.611000 -7.048000 -2.364000
11.805000 -5.861000 -2.603000
13.544000 -6.629000 -2.465000
15.781000 -7.630000 -2.249000
11.046000 -5.594000 -2.675000
12.603000 -6.273000 -2.536000
14.559000 -7.156000 -2.366000
11.782000 -5.962000 -2.610000
13.493000 -6.729000 -2.467000
15.733000 -7.749000 -2.253000
11.003000 -5.678000 -2.678000
12.571000 -6.375000 -2.541000
14.503000 -7.260000 -2.368000
11.739000 -6.052000 -2.612000
13.453000 -6.834000 -2.471000
15.686000 -7.869000 -2.256000
10.988000 -5.779000 -2.687000
12.525000 -6.471000 -2.544000
14.474000 -7.380000 -2.374000
11.692000 -6.141000 -2.615000
13.422000 -6.944000 -2.477000
15.646000 -7.992000 -2.261000
10.940000 -5.861000 -2.688000
12.481000 -6.568000 -2.547000
14.420000 -7.488000 -2.376000
11.650000 -6.232000 -2.618000
13.368000 -7.044000 -2.479000
15.607000 -8.117000 -2.266000
10.899000 -5.947000 -2.692000
12.445000 -6.668000 -2.551000
14.381000 -7.603000 -2.380000
11.612000 -6.326000 -2.621000
13.311000 -7.141000 -2.479000
15.568000 -8.243000 -2.270000
10.864000 -6.038000 -2.696000
12.396000 -6.764000 -2.553000
14.331000 -7.713000 -2.383000
11.571000 -6.419000 -2.625000
13.292000 -7.260000 -2.486000
15.516000 -8.362000 -2.272000
10.827000 -6.128000 -2.699000
12.371000 -6.872000 -2.559000
14.293000 -7.830000 -2.386000
11.546000 -6.521000 -2.631000
13.246000 -7.364000 -2.489000
15.487000 -8.494000 -2.278000
10.791000 -6.218000 -2.703000
12.321000 -6.967000 -2.560000
14.241000 -7.939000 -2.388000
11.498000 -6.611000 -2.632000
13.210000 -7.474000 -2.493000
15.437000 -8.616000 -2.280000
10.757000 -6.310000 -2.708000
12.284000 -7.069000 -2.565000
14.201000 -8.056000 -2.392000
11.453000 -6.703000 -2.634000
13.159000 -7.576000 -2.494000
15.408000 -8.749000 -2.285000
10.707000 -6.394000 -2.708000
12.239000 -7.168000 -2.566000
14.164000 -8.175000 -2.395000
11.428000 -6.806000 -2.640000
13.128000 -7.691000 -2.499000
15.367000 -8.877000 -2.288000
10.675000 -6.488000 -2.713000
12.203000 -7.271000 -2.570000
14.139000 -8.302000 -2.401000
11.382000 -6.898000 -2.641000
13.089000 -7.801000 -2.502000
15.333000 -9.010000 -2.292000
10.623000 -6.570000 -2.712000
12.164000 -7.374000 -2.573000
14.100000 -8.421000 -2.404000
11.341000 -6.993000 -2.644000
13.047000 -7.910000 -2.504000
15.290000 -9.137000 -2.294000
10.598000 -6.670000 -2.718000
12.143000 -7.490000 -2.579000
14.052000 -8.535000 -2.405000
11.307000 -7.093000 -2.648000
13.009000 -8.022000 -2.508000
15.264000 -9.275000 -2.299000
10.563000 -6.764000 -2.722000
12.093000 -7.586000 -2.579000
14.023000 -8.663000 -2.409000
11.274000 -7.195000 -2.651000
12.983000 -8.143000 -2.512000
15.245000 -9.419000 -2.304000
10.518000 -6.852000 -2.723000
12.079000 -7.707000 -2.588000
13.972000 -8.777000 -2.410000
11.211000 -7.278000 -2.648000
12.944000 -8.254000 -2.514000
15.205000 -9.552000 -2.305000
10.492000 -6.953000 -2.728000
12.029000 -7.805000 -2.587000
13.944000 -8.905000 -2.414000
11.203000 -7.396000 -2.657000
12.907000 -8.370000 -2.517000
15.172000 -9.689000 -2.309000
10.452000 -7.046000 -2.730000
11.992000 -7.912000 -2.589000
13.916000 -9.035000 -2.416000
11.164000 -7.495000 -2.659000
12.880000 -8.492000 -2.521000
15.134000 -9.824000 -2.310000
10.424000 -7.146000 -2.735000
11.959000 -8.023000 -2.593000
13.889000 -9.167000 -2.420000
11.134000 -7.602000 -2.663000
12.838000 -8.604000 -2.522000
15.111000 -9.970000 -2.313000
10.379000 -7.236000 -2.734000
11.928000 -8.136000 -2.595000
13.865000 -9.301000 -2.424000
11.101000 -7.706000 -2.666000
12.805000 -8.724000 -2.524000
15.079000 -10.112000 -2.315000
10.347000 -7.336000 -2.738000
11.902000 -8.252000 -2.599000
13.826000 -9.427000 -2.424000
11.073000 -7.815000 -2.669000
12.794000 -8.860000 -2.530000
15.066000 -10.266000 -2.319000
10.314000 -7.436000 -2.741000
11.860000 -8.358000 -2.600000
13.815000 -9.573000 -2.430000
11.043000 -7.924000 -2.673000
12.753000 -8.976000 -2.530000
15.068000 -10.434000 -2.324000
10.280000 -7.536000 -2.743000
11.829000 -8.474000 -2.601000
13.795000 -9.713000 -2.433000
10.993000 -8.018000 -2.671000
12.718000 -9.097000 -2.532000
15.026000 -10.572000 -2.324000
10.256000 -7.643000 -2.748000
11.813000 -8.600000 -2.607000
13.776000 -9.856000 -2.435000
10.978000 -8.139000 -2.676000
12.714000 -9.241000 -2.539000
15.005000 -10.725000 -2.326000
10.217000 -7.740000 -2.748000
11.778000 -8.715000 -2.608000
13.753000 -9.997000 -2.438000
10.937000 -8.241000 -2.677000
12.681000 -9.365000 -2.538000
15.001000 -10.893000 -2.329000
10.182000 -7.841000 -2.749000
11.749000 -8.833000 -2.610000
13.725000 -10.135000 -2.439000
10.905000 -8.351000 -2.678000
12.663000 -9.502000 -2.542000
14.984000 -11.053000 -2.331000
10.148000 -7.944000 -2.751000
11.722000 -8.956000 -2.611000
13.723000 -10.296000 -2.443000
10.883000 -8.470000 -2.681000
12.635000 -9.632000 -2.543000
14.991000 -11.231000 -2.335000
10.118000 -8.051000 -2.753000
11.702000 -9.083000 -2.615000
13.708000 -10.447000 -2.446000
10.862000 -8.591000 -2.685000
12.627000 -9.779000 -2.547000
14.977000 -11.398000 -2.335000
10.094000 -8.163000 -2.756000
11.685000 -9.214000 -2.618000
13.698000 -10.603000 -2.448000
10.843000 -8.714000 -2.689000
12.584000 -9.901000 -2.545000
14.951000 -11.556000 -2.334000
10.074000 -8.279000 -2.760000
11.665000 -9.345000 -2.619000
13.679000 -10.754000 -2.447000
10.810000 -8.827000 -2.688000
12.585000 -10.057000 -2.550000
14.957000 -11.739000 -2.337000
10.039000 -8.384000 -2.760000
11.650000 -9.482000 -2.623000
13.666000 -10.912000 -2.449000
10.802000 -8.961000 -2.694000
12.568000 -10.201000 -2.550000
14.955000 -11.920000 -2.337000
10.026000 -8.510000 -2.765000
11.627000 -9.612000 -2.624000
13.652000 -11.069000 -2.449000
10.788000 -9.092000 -2.698000
12.560000 -10.354000 -2.554000
14.948000 -12.098000 -2.337000
9.997000 -8.622000 -2.766000
11.599000 -9.740000 -2.622000
13.663000 -11.250000 -2.452000
10.765000 -9.218000 -2.698000
12.556000 -10.511000 -2.556000
14.982000 -12.310000 -2.342000
9.977000 -8.742000 -2.769000
11.587000 -9.883000 -2.625000
13.651000 -11.414000 -2.452000
10.728000 -9.331000 -2.696000
12.549000 -10.669000 -2.557000
15.004000 -12.518000 -2.343000
9.950000 -8.858000 -2.769000
11.581000 -10.031000 -2.628000
13.668000 -11.603000 -2.456000
10.725000 -9.475000 -2.701000
12.535000 -10.822000 -2.558000
14.993000 -12.699000 -2.341000
9.941000 -8.993000 -2.774000
11.552000 -10.162000 -2.624000
13.669000 -11.782000 -2.455000
10.706000 -9.606000 -2.702000
12.545000 -10.997000 -2.562000
15.016000 -12.911000 -2.342000
9.920000 -9.115000 -2.775000
11.572000 -10.338000 -2.633000
13.659000 -11.952000 -2.454000
10.690000 -9.744000 -2.703000
12.536000 -11.157000 -2.560000
15.019000 -13.109000 -2.338000
9.908000 -9.248000 -2.778000
11.562000 -10.487000 -2.633000
13.668000 -12.140000 -2.454000
10.677000 -9.882000 -2.704000
12.528000 -11.321000 -2.559000
15.048000 -13.332000 -2.338000
9.882000 -9.371000 -2.777000
11.550000 -10.637000 -2.632000
