# This PCD file was generated using the MATLAB® pcwrite function
# from Computer Vision Toolbox®.
# .PCD v.7 - Point Cloud Data file format
VERSION .7
FIELDS x y z
SIZE 4 4 4
TYPE F F F
COUNT 1 1 1
WIDTH 1643
HEIGHT 1
VIEWPOINT 0 0 0 1 0 0 0
POINTS 1643
DATA ascii
55.660999 -49.493999 10.371000
54.521999 -49.553001 12.721000
0.000000 0.000000 0.000000
0.000000 0.000000 0.000000
59.581001 -53.077999 12.509000
54.358002 -49.699001 14.109000
0.000000 0.000000 0.000000
56.994999 -51.122002 13.324000
0.000000 0.000000 0.000000
0.000000 0.000000 0.000000
0.000000 0.000000 0.000000
54.582001 -49.229000 14.181000
60.536999 -52.429001 11.355000
0.000000 0.000000 0.000000
0.000000 0.000000 0.000000
0.000000 0.000000 0.000000
0.000000 0.000000 0.000000
0.000000 0.000000 0.000000
0.000000 0.000000 0.000000
0.000000 0.000000 0.000000
0.000000 0.000000 0.000000
63.941002 -53.678001 10.530000
0.000000 0.000000 0.000000
0.000000 0.000000 0.000000
0.000000 0.000000 0.000000
0.000000 0.000000 0.000000
0.000000 0.000000 0.000000
0.000000 0.000000 0.000000
0.000000 0.000000 0.000000
0.000000 0.000000 0.000000
0.000000 0.000000 0.000000
66.847000 -56.773998 15.693000
65.808998 -57.494999 18.849001
0.000000 0.000000 0.000000
0.000000 0.000000 0.000000
0.000000 0.000000 0.000000
0.000000 0.000000 0.000000
0.000000 0.000000 0.000000
0.000000 0.000000 0.000000
0.000000 0.000000 0.000000
0.000000 0.000000 0.000000
0.000000 0.000000 0.000000
0.000000 0.000000 0.000000
0.000000 0.000000 0.000000
0.000000 0.000000 0.000000
61.423000 -48.806000 10.235000
0.000000 0.000000 0.000000
0.000000 0.000000 0.000000
61.328999 -48.917000 11.645000
61.806999 -50.318001 14.516000
0.000000 0.000000 0.000000
61.067001 -47.849998 10.195000
61.257999 -48.894001 13.010000
0.000000 0.000000 0.000000
61.139999 -48.080002 11.624000
61.849998 -49.633999 14.525000
0.000000 0.000000 0.000000
61.363998 -47.405998 10.256000
61.094002 -48.069000 12.972000
0.000000 0.000000 0.000000
61.174000 -47.425999 11.638000
61.650002 -48.766998 14.470000
0.000000 0.000000 0.000000
62.167000 -47.345001 10.408000
57.564999 -44.641998 12.225000
0.000000 0.000000 0.000000
61.722000 -47.166000 11.742000
0.000000 0.000000 0.000000
0.000000 0.000000 0.000000
62.665001 -47.046001 10.501000
57.627998 -44.049000 12.233000
61.056999 -47.766998 15.795000
62.131001 -46.792999 11.825000
61.277000 -47.068001 14.357000
63.750999 -50.261002 18.082001
62.855999 -46.507000 10.536000
57.712002 -43.469002 12.240000
61.858002 -47.681000 15.977000
62.379002 -46.300999 11.871000
61.855999 -46.818001 14.476000
0.000000 0.000000 0.000000
61.655998 -44.956001 10.343000
58.424000 -43.358002 12.385000
61.853001 -46.958000 15.948000
62.730000 -45.877998 11.929000
0.000000 0.000000 0.000000
0.000000 0.000000 0.000000
60.430000 -43.422001 10.138000
0.000000 0.000000 0.000000
61.833000 -46.242001 15.912000
60.198002 -43.375000 11.444000
0.000000 0.000000 0.000000
62.222000 -46.865002 17.528999
61.908001 -43.827000 10.381000
60.108002 -43.297001 12.710000
60.216999 -44.355000 15.465000
63.160000 -44.837002 11.998000
62.282001 -45.057999 14.508000
62.151001 -46.095001 17.465000
0.000000 0.000000 0.000000
62.717999 -44.497002 13.247000
59.900002 -43.443001 15.349000
63.074001 -44.105000 11.965000
61.081001 -43.518002 14.198000
60.377998 -44.091999 16.922001
63.137001 -43.375000 10.581000
63.103001 -44.095001 13.308000
61.734001 -44.087002 15.782000
63.033001 -43.409000 11.947000
62.834999 -44.082001 14.580000
60.209000 -43.278000 16.827999
63.178001 -42.749001 10.576000
63.571999 -43.744999 13.380000
63.042000 -44.327999 16.077000
63.492001 -43.063000 12.017000
63.625000 -43.950001 14.731000
57.471001 -40.666000 16.017000
64.264000 -42.820999 10.750000
0.000000 0.000000 0.000000
62.273998 -43.104000 15.836000
63.116001 -42.151001 11.924000
0.000000 0.000000 0.000000
57.953999 -40.362000 16.104000
64.176003 -42.112000 10.723000
64.263000 -42.868999 13.476000
59.201000 -40.332001 15.017000
64.556000 -42.445000 12.178000
67.444000 -45.146000 15.542000
58.310001 -39.963001 16.149000
65.297997 -42.183998 10.892000
67.403000 -44.259998 14.100000
59.318001 -39.776001 15.004000
0.000000 0.000000 0.000000
0.000000 0.000000 0.000000
58.536999 -39.473999 16.164000
62.596001 -39.807999 10.428000
67.545998 -43.654999 14.101000
59.521999 -39.272999 15.009000
62.502998 -39.823002 11.741000
71.755997 -46.528999 16.445000
0.000000 0.000000 0.000000
60.011002 -37.570000 9.980000
62.463001 -39.733002 13.008000
0.000000 0.000000 0.000000
59.929001 -37.577999 11.236000
62.247002 -39.714001 14.229000
0.000000 0.000000 0.000000
66.896004 -41.216999 11.100000
59.929001 -37.512001 12.445000
62.152000 -39.699001 15.579000
67.360001 -41.568001 12.600000
59.672001 -37.459999 13.602000
0.000000 0.000000 0.000000
67.122002 -40.695000 11.118000
68.112999 -41.946999 14.110000
0.000000 0.000000 0.000000
67.257004 -40.837002 12.547000
71.791000 -44.334999 16.312000
69.192001 -43.689999 18.849001
67.001999 -39.973000 11.074000
68.507004 -41.507000 14.153000
72.199997 -44.612999 17.981001
63.181999 -37.740002 11.760000
71.943001 -43.699001 16.299999
58.118999 -36.087002 15.773000
63.439999 -37.234001 10.457000
63.771999 -38.006001 13.134000
74.027000 -44.987999 18.374001
0.000000 0.000000 0.000000
72.422997 -43.265999 16.357000
73.578003 -44.917000 19.900000
0.000000 0.000000 0.000000
63.973999 -37.494999 13.139000
0.000000 0.000000 0.000000
61.549999 -35.570000 11.390000
0.000000 0.000000 0.000000
73.832001 -44.313000 19.896000
66.434998 -37.723999 10.899000
63.507000 -36.605000 13.003000
113.671997 -66.777000 28.020000
61.294998 -34.832001 11.313000
0.000000 0.000000 0.000000
74.822998 -44.140999 20.084000
64.672997 -36.112999 10.578000
65.471001 -37.101002 13.360000
0.000000 0.000000 0.000000
0.000000 0.000000 0.000000
63.039001 -35.793999 14.097000
0.000000 0.000000 0.000000
71.628998 -39.324001 11.686000
0.000000 0.000000 0.000000
114.890999 -65.209999 28.114000
0.000000 0.000000 0.000000
63.522999 -35.452000 14.153000
0.000000 0.000000 0.000000
71.227997 -38.445000 11.587000
0.000000 0.000000 0.000000
115.778000 -64.573997 28.233000
0.000000 0.000000 0.000000
62.048000 -34.028000 13.779000
115.804001 -64.822998 30.731001
71.533997 -37.950001 11.598000
63.979000 -34.429001 12.927000
116.778999 -63.993999 28.365999
0.000000 0.000000 0.000000
62.911999 -33.903999 13.922000
0.000000 0.000000 0.000000
64.004997 -33.367001 10.348000
64.144997 -33.914001 12.919000
117.529999 -63.276001 28.441999
0.000000 0.000000 0.000000
63.195999 -33.458000 13.932000
0.000000 0.000000 0.000000
63.097000 -32.324001 10.169000
64.456001 -33.483002 12.937000
0.000000 0.000000 0.000000
66.315002 -33.967999 12.007000
65.252998 -33.931999 14.335000
0.000000 0.000000 0.000000
65.125000 -32.775002 10.458000
64.308998 -32.812000 12.859000
0.000000 0.000000 0.000000
70.234001 -35.339001 12.674000
69.940002 -35.719002 15.309000
0.000000 0.000000 0.000000
65.125999 -32.191002 10.426000
64.117996 -32.131001 12.775000
0.000000 0.000000 0.000000
0.000000 0.000000 0.000000
69.779999 -34.992001 15.214000
0.000000 0.000000 0.000000
65.478996 -31.785999 10.447000
63.998001 -31.487000 12.708000
0.000000 0.000000 0.000000
63.997002 -31.048000 11.467000
69.949997 -34.438000 15.194000
0.000000 0.000000 0.000000
66.741997 -31.809999 10.609000
64.175003 -30.993999 12.694000
121.123001 -59.495998 28.754999
64.606003 -30.771999 11.534000
69.876999 -33.764000 15.124000
0.000000 0.000000 0.000000
66.255997 -30.997000 10.497000
65.786003 -31.186001 12.964000
0.000000 0.000000 0.000000
66.378998 -31.028999 11.805000
70.367996 -33.365002 15.169000
121.872002 -58.862999 31.330999
66.237000 -30.415001 10.457000
66.413002 -30.892000 13.042000
0.000000 0.000000 0.000000
66.357002 -30.434999 11.761000
70.360001 -32.731998 15.110000
0.000000 0.000000 0.000000
67.070000 -30.218000 10.547000
66.886002 -30.521000 13.083000
71.262001 -33.054001 16.719999
66.793999 -30.058001 11.794000
70.552002 -32.192001 15.096000
0.000000 0.000000 0.000000
0.000000 0.000000 0.000000
66.863998 -29.927000 13.029000
0.000000 0.000000 0.000000
68.000999 -30.013000 11.960000
0.000000 0.000000 0.000000
0.000000 0.000000 0.000000
81.916000 -35.507999 12.790000
0.000000 0.000000 0.000000
118.616997 -52.896000 27.618999
0.000000 0.000000 0.000000
0.000000 0.000000 0.000000
0.000000 0.000000 0.000000
81.584000 -34.674000 12.688000
0.000000 0.000000 0.000000
0.000000 0.000000 0.000000
80.350998 -34.091000 14.029000
111.818001 -48.077000 23.650000
0.000000 0.000000 0.000000
0.000000 0.000000 0.000000
111.391998 -46.974998 21.459999
0.000000 0.000000 0.000000
68.928001 -28.660000 11.986000
0.000000 0.000000 0.000000
0.000000 0.000000 0.000000
0.000000 0.000000 0.000000
0.000000 0.000000 0.000000
78.787003 -33.057999 18.129999
69.463997 -28.298000 12.036000
69.797997 -28.809999 14.646000
80.750999 -33.901001 20.184999
0.000000 0.000000 0.000000
68.942001 -27.900000 13.181000
0.000000 0.000000 0.000000
69.446999 -27.714001 11.987000
70.098999 -28.334000 14.655000
0.000000 0.000000 0.000000
71.498001 -28.007999 10.954000
67.773003 -26.861000 12.908000
69.764000 -28.069000 15.927000
69.942001 -27.330000 12.025000
70.232002 -27.791000 14.624000
0.000000 0.000000 0.000000
68.667000 -26.340000 10.480000
72.444000 -28.106001 13.747000
69.960999 -27.549000 15.912000
68.603996 -26.240000 11.752000
70.140999 -27.167999 14.550000
0.000000 0.000000 0.000000
73.622002 -27.641001 11.191000
68.889999 -26.155001 13.021000
68.596001 -26.427999 15.539000
68.597000 -25.679001 11.706000
68.537003 -25.973000 14.165000
0.000000 0.000000 0.000000
0.000000 0.000000 0.000000
68.832001 -25.569000 12.961000
68.837997 -25.945000 15.535000
69.250999 -25.360001 11.770000
71.099998 -26.353001 14.636000
0.000000 0.000000 0.000000
0.000000 0.000000 0.000000
69.415001 -25.215000 13.023000
68.893997 -25.386000 15.490000
68.550003 -24.546000 11.609000
69.926003 -25.344000 14.341000
69.737999 -25.676001 17.028999
68.000999 -23.893000 10.218000
70.587997 -25.066999 13.192000
70.536003 -25.403999 15.797000
69.414001 -24.299999 11.711000
69.545998 -24.632999 14.211000
88.653999 -31.891001 21.569000
71.223999 -24.464001 10.662000
68.927002 -23.923000 12.833000
70.135002 -24.683001 15.649000
67.885002 -23.222000 11.408000
70.030998 -24.233999 14.255000
69.651001 -24.473000 16.879999
58.426998 -19.605000 8.714000
69.707001 -23.629999 12.933000
71.470001 -24.563999 15.890000
69.091003 -23.089001 11.568000
72.434998 -24.482000 14.690000
84.199997 -28.889999 20.330000
57.816002 -18.945999 8.589000
70.294998 -23.268000 12.992000
71.477997 -23.981001 15.831000
71.503998 -23.329000 11.929000
70.632004 -23.302000 14.274000
73.444000 -24.591999 17.670000
57.881001 -18.518000 8.567000
80.425003 -25.985001 14.810000
87.995003 -28.813000 19.419001
75.528999 -24.047001 12.553000
70.583000 -22.719000 14.211000
71.333000 -23.299999 17.097000
70.971001 -22.153999 10.467000
71.836998 -22.641001 13.182000
84.503998 -26.986000 18.584000
75.463997 -23.440001 12.496000
70.981003 -22.285999 14.240000
70.573997 -22.479000 16.855000
70.252998 -21.386000 10.321000
77.470001 -23.806999 14.163000
83.995003 -26.149000 18.403999
75.891998 -22.981001 12.524000
77.200996 -23.625000 15.435000
70.150002 -21.774000 16.697001
73.601997 -21.843000 10.774000
85.600998 -25.639999 15.595000
83.915001 -25.457001 18.323000
73.496002 -21.687000 12.083000
89.452003 -26.669001 17.819000
69.466003 -21.002001 16.474001
75.190002 -21.738001 10.968000
73.371002 -21.403999 13.322000
69.191002 -20.438999 15.057000
0.000000 0.000000 0.000000
73.004997 -21.197001 14.493000
69.248001 -20.385000 16.367001
0.000000 0.000000 0.000000
0.000000 0.000000 0.000000
73.185997 -21.042000 15.871000
103.772003 -29.028999 16.944000
0.000000 0.000000 0.000000
68.818001 -19.708000 16.212000
79.998001 -21.917999 11.584000
88.336998 -24.410000 15.928000
0.000000 0.000000 0.000000
88.100998 -23.973000 14.334000
85.612000 -23.523001 16.882000
68.831001 -19.166000 16.160000
73.540001 -19.591999 10.613000
0.000000 0.000000 0.000000
0.000000 0.000000 0.000000
83.535004 -22.101000 13.545000
85.912003 -22.947001 16.886000
69.003998 -18.673000 16.148001
59.257000 -15.342000 8.521000
73.155998 -19.094000 13.104000
80.099998 -21.153000 17.200001
83.778000 -21.531000 13.541000
0.000000 0.000000 0.000000
69.241997 -18.193001 16.153000
85.129997 -21.409000 12.201000
80.513000 -20.407000 14.376000
72.472000 -18.580999 15.513000
84.574997 -21.100000 13.624000
91.997002 -23.159000 17.966999
72.459999 -18.473000 16.849001
104.647003 -25.538000 14.950000
92.306999 -22.698000 16.431000
72.029999 -17.912001 15.372000
0.000000 0.000000 0.000000
83.158997 -20.305000 16.191000
72.271004 -17.865000 16.754000
0.000000 0.000000 0.000000
84.481003 -20.138000 14.989000
75.306999 -18.149000 16.021000
0.000000 0.000000 0.000000
0.000000 0.000000 0.000000
79.536003 -19.045000 18.385000
79.772003 -18.291000 11.321000
84.929001 -19.611000 15.024000
81.099998 -18.929001 17.202999
81.710999 -18.561001 13.038000
0.000000 0.000000 0.000000
80.544998 -18.666000 18.562000
79.703003 -17.688999 11.277000
85.413002 -19.084000 15.066000
81.449997 -18.391001 17.229000
81.821999 -17.985001 13.017000
84.791000 -18.785999 16.362000
80.699997 -18.087999 18.545000
60.969002 -13.085000 8.599000
85.603996 -18.490999 15.054000
81.800003 -17.851000 17.253000
81.315002 -17.273001 12.900000
85.000999 -18.195000 16.358000
80.974998 -17.534000 18.556999
61.276001 -12.708000 8.616000
84.889999 -17.712000 14.887000
83.289001 -17.552000 17.518999
81.722000 -16.761000 12.926000
84.878998 -17.537001 16.288000
84.597000 -17.670000 19.334999
81.832001 -16.374001 11.475000
84.290001 -16.962999 14.742000
84.157997 -17.108000 17.653999
81.684998 -16.160000 12.884000
86.569000 -17.247000 16.568001
84.598000 -17.034000 19.284000
60.693001 -11.705000 8.485000
100.110001 -19.412001 17.461000
85.290001 -16.693001 17.844999
83.748001 -15.956000 13.175000
90.877998 -17.431999 17.349001
84.528999 -16.386000 19.219999
60.650002 -11.263000 8.456000
82.969002 -15.484000 14.434000
85.959000 -16.188000 17.940001
83.415001 -15.288000 13.086000
0.000000 0.000000 0.000000
83.989998 -15.644000 19.049999
61.929001 -11.052000 8.610000
79.563004 -14.267000 13.807000
81.587997 -14.763000 16.987000
81.924004 -14.426000 12.820000
80.592003 -14.276000 15.308000
81.667999 -14.604000 18.480000
61.716999 -10.574000 8.559000
79.879997 -13.743000 13.827000
81.075996 -14.066000 16.840000
81.696999 -13.792000 12.752000
80.709999 -13.705000 15.295000
81.866997 -14.033000 18.482000
72.560997 -11.917000 10.038000
80.397003 -13.252000 13.885000
81.138000 -13.481000 16.815001
72.670998 -11.750000 11.316000
79.971001 -12.996000 15.120000
80.544998 -13.203000 18.143000
60.631001 -9.523000 8.366000
78.758003 -12.412000 13.572000
79.112999 -12.567000 16.360001
71.733002 -11.087000 11.145000
80.261002 -12.462000 15.142000
80.335999 -12.577000 18.058001
78.579002 -11.788000 10.818000
79.109001 -11.898000 13.601000
79.938004 -12.108000 16.496000
71.235001 -10.497000 11.043000
79.233002 -11.727000 14.917000
78.971001 -11.783000 17.716000
81.676003 -11.677000 11.220000
72.195000 -10.343000 12.387000
79.151001 -11.414000 16.301001
71.497002 -10.030000 11.060000
79.977997 -11.259000 15.026000
79.580002 -11.282000 17.816999
81.275002 -11.041000 11.140000
80.320000 -10.929000 13.754000
78.904999 -10.808000 16.219000
72.250000 -9.625000 11.154000
79.552002 -10.629000 14.918000
79.746002 -10.724000 17.820999
73.092003 -9.418000 9.998000
78.625000 -10.137000 13.438000
79.176003 -10.263000 16.245001
71.110001 -8.964000 10.957000
78.404999 -9.910000 14.676000
80.306999 -10.215000 17.915001
81.515999 -9.935000 11.128000
79.842003 -9.728000 13.621000
79.473999 -9.730000 16.278000
71.275002 -8.485000 10.962000
79.609001 -9.490000 14.875000
80.279999 -9.619000 17.879000
73.315002 -8.417000 9.990000
72.608002 -8.329000 12.366000
80.041000 -9.225000 16.367001
51.933998 -5.818000 7.973000
51.660000 -5.791000 9.637000
51.537998 -5.802000 11.459000
51.959000 -5.604000 7.068000
51.926998 -5.588000 8.829000
51.799999 -5.593000 10.575000
52.054001 -5.462000 7.979000
51.935001 -5.450000 9.674000
51.771000 -5.454000 11.494000
52.230999 -5.271000 7.093000
52.077999 -5.238000 8.842000
51.939999 -5.236000 10.589000
51.758999 -5.070000 7.921000
51.589001 -5.046000 9.595000
51.418999 -5.041000 11.400000
52.356998 -4.916000 7.099000
52.209000 -4.881000 8.851000
52.078999 -4.879000 10.603000
52.273998 -4.756000 7.989000
52.020000 -4.720000 9.662000
51.937000 -4.718000 11.500000
52.419998 -4.560000 7.097000
52.164001 -4.509000 8.832000
51.924000 -4.489000 10.558000
51.823002 -4.349000 7.909000
51.520000 -4.311000 9.558000
51.323002 -4.293000 11.351000
51.348000 -4.112000 6.943000
49.188999 -3.908000 8.318000
50.777000 -4.029000 10.313000
50.731998 -3.906000 7.733000
50.436001 -3.860000 9.345000
50.195000 -3.834000 11.089000
50.279999 -3.675000 6.790000
48.143002 -3.488000 8.132000
49.743000 -3.593000 10.092000
48.144001 -3.373000 7.330000
47.950001 -3.333000 8.875000
47.848000 -3.312000 10.559000
48.257999 -3.195000 6.510000
47.782001 -3.124000 8.063000
48.009998 -3.123000 9.731000
48.646999 -3.066000 7.399000
48.395000 -3.024000 8.949000
48.051998 -2.983000 10.595000
48.275002 -2.865000 6.505000
47.741001 -2.789000 8.048000
47.701000 -2.765000 9.660000
47.731998 -2.679000 7.253000
47.458000 -2.627000 8.768000
43.534000 -2.386000 9.591000
43.714001 -2.290000 5.885000
43.469002 -2.237000 7.322000
43.574001 -2.218000 8.817000
43.783001 -2.155000 6.648000
43.664001 -2.111000 8.061000
43.563000 -2.078000 9.590000
43.900002 -1.999000 5.906000
43.784000 -1.944000 7.370000
43.702000 -1.912000 8.837000
43.910000 -1.854000 6.662000
43.791000 -1.811000 8.080000
43.699001 -1.773000 9.614000
44.020000 -1.703000 5.918000
43.910000 -1.645000 7.387000
43.827000 -1.608000 8.857000
44.027000 -1.555000 6.676000
43.497002 -1.490000 8.021000
43.832001 -1.462000 9.639000
44.104000 -1.401000 5.925000
43.695999 -1.334000 7.347000
42.826000 -1.269000 8.651000
42.942001 -1.221000 6.508000
43.925999 -1.198000 8.096000
42.243999 -1.109000 9.285000
43.923000 -1.095000 5.898000
43.613998 -1.025000 7.330000
43.341000 -0.975000 8.751000
43.356998 -0.931000 6.568000
41.521000 -0.843000 7.650000
42.465000 -0.813000 9.331000
42.012001 -0.760000 5.640000
42.849998 -0.711000 7.199000
42.568001 -0.658000 8.593000
42.589001 -0.622000 6.450000
40.841999 -0.540000 7.523000
42.115002 -0.503000 9.252000
42.387001 -0.474000 5.689000
42.120998 -0.407000 7.076000
41.801998 -0.352000 8.437000
41.854000 -0.324000 6.338000
40.347000 -0.252000 7.431000
41.386002 -0.201000 9.091000
41.682999 -0.182000 5.593000
41.394001 -0.109000 6.953000
41.073002 -0.053000 8.289000
40.909000 -0.031000 6.194000
39.566002 0.028000 7.287000
39.678001 0.087000 8.715000
39.897999 0.097000 5.354000
39.839001 0.169000 6.691000
39.716999 0.226000 8.016000
39.918999 0.243000 6.044000
39.435001 0.306000 7.263000
39.868999 0.375000 8.758000
40.270000 0.377000 5.404000
40.000000 0.446000 6.719000
39.717999 0.505000 8.017000
39.883999 0.516000 6.040000
39.424999 0.581000 7.262000
39.160000 0.646000 8.604000
39.624001 0.641000 5.318000
39.326000 0.715000 6.607000
39.069000 0.775000 7.887000
39.230000 0.781000 5.942000
38.919998 0.844000 7.171000
38.625000 0.911000 8.488000
37.851002 0.870000 5.082000
38.689999 0.971000 6.503000
35.451000 0.953000 7.159000
35.599998 0.953000 5.394000
35.403999 1.018000 6.525000
35.129002 1.081000 7.723000
35.480999 1.060000 4.766000
35.207001 1.127000 5.920000
35.334000 1.198000 7.139000
35.495998 1.194000 5.381000
35.404999 1.265000 6.529000
35.346001 1.338000 7.774000
35.588001 1.306000 4.782000
35.500999 1.385000 5.972000
35.442001 1.454000 7.164000
35.578999 1.442000 5.397000
35.519001 1.516000 6.553000
35.483002 1.595000 7.808000
35.671001 1.553000 4.797000
35.587002 1.635000 5.990000
35.540001 1.708000 7.188000
35.689999 1.694000 5.417000
35.605000 1.772000 6.573000
35.540001 1.853000 7.826000
35.779999 1.803000 4.815000
35.688000 1.887000 6.012000
35.358002 1.948000 7.157000
35.766998 1.943000 5.433000
35.529999 2.016000 6.564000
35.702000 2.115000 7.867000
35.730999 2.046000 4.812000
35.833000 2.146000 6.041000
34.271000 2.133000 6.942000
35.757999 2.191000 5.436000
35.456001 2.259000 6.556000
35.191002 2.335000 7.761000
35.603001 2.282000 4.799000
35.304001 2.359000 5.957000
33.929001 2.351000 6.879000
35.250000 2.404000 5.364000
34.938999 2.474000 6.466000
34.618999 2.547000 7.642000
35.071999 2.489000 4.733000
34.769001 2.564000 5.872000
33.504002 2.557000 6.799000
34.745998 2.609000 5.293000
34.433998 2.679000 6.379000
0.000000 0.000000 0.000000
34.558998 2.691000 4.669000
34.227001 2.766000 5.787000
33.341999 2.784000 6.774000
34.231998 2.817000 5.223000
33.926998 2.886000 6.295000
33.664001 2.965000 7.450000
34.091999 2.897000 4.614000
33.764999 2.972000 5.718000
33.165001 3.012000 6.748000
33.785000 3.015000 5.161000
33.490002 3.087000 6.221000
33.165001 3.161000 7.348000
25.759001 2.366000 3.491000
25.575001 2.429000 4.337000
32.867001 3.218000 6.696000
25.551001 2.457000 3.908000
33.033001 3.277000 6.145000
32.692001 3.350000 7.253000
25.469999 2.516000 3.456000
25.237000 2.575000 4.285000
32.599998 3.426000 6.651000
25.205999 2.599000 3.861000
32.139999 3.415000 5.987000
31.407000 3.443000 6.977000
25.128000 2.655000 3.415000
24.902000 2.715000 4.235000
31.483999 3.532000 6.432000
24.884001 2.739000 3.818000
31.563000 3.578000 5.888000
31.461000 3.678000 7.000000
24.796000 2.791000 3.376000
24.572001 2.851000 4.186000
31.690001 3.780000 6.484000
24.556000 2.874000 3.773000
24.412001 2.939000 4.561000
31.438000 3.900000 7.006000
24.479000 2.926000 3.338000
24.261999 2.987000 4.139000
31.289000 3.958000 6.412000
24.240999 3.006000 3.732000
24.040001 3.065000 4.499000
30.917000 4.058000 6.901000
24.157000 3.054000 3.300000
23.936001 3.114000 4.091000
30.889000 4.128000 6.341000
23.926001 3.135000 3.690000
23.718000 3.193000 4.447000
30.184000 4.183000 6.749000
23.853001 3.181000 3.265000
23.629000 3.241000 4.046000
30.476000 4.290000 6.267000
23.617001 3.259000 3.649000
23.400000 3.316000 4.395000
29.625000 4.319000 6.636000
23.542000 3.304000 3.229000
23.339001 3.367000 4.003000
30.101999 4.456000 6.202000
23.318001 3.381000 3.610000
23.110001 3.439000 4.349000
29.061001 4.447000 6.522000
23.254000 3.425000 3.196000
23.034000 3.485000 3.959000
29.711000 4.612000 6.133000
23.031000 3.503000 3.572000
22.820999 3.560000 4.303000
27.173000 4.358000 6.110000
22.965000 3.543000 3.163000
22.743999 3.603000 3.917000
27.079000 4.399000 5.602000
22.750000 3.619000 3.536000
22.527000 3.675000 4.256000
26.837000 4.499000 6.046000
22.684000 3.659000 3.131000
22.454000 3.717000 3.875000
27.112000 4.599000 5.620000
22.458000 3.731000 3.499000
22.247000 3.789000 4.212000
27.120001 4.745000 6.123000
22.399000 3.769000 3.099000
22.195999 3.832000 3.839000
27.191000 4.811000 5.648000
22.176001 3.842000 3.462000
21.965000 3.900000 4.168000
27.188000 4.956000 6.152000
22.117001 3.877000 3.067000
21.909000 3.939000 3.798000
27.278999 5.025000 5.679000
21.916000 3.952000 3.429000
21.701000 4.008000 4.127000
27.261000 5.170000 6.182000
21.858999 3.987000 3.039000
21.639999 4.046000 3.760000
27.304001 5.228000 5.697000
21.650999 4.058000 3.396000
21.437000 4.115000 4.086000
27.226000 5.365000 6.189000
21.590000 4.089000 3.008000
21.386000 4.151000 3.724000
26.754999 5.319000 5.595000
21.396999 4.163000 3.364000
21.173000 4.218000 4.045000
27.259001 5.572000 6.211000
21.343000 4.194000 2.982000
21.135000 4.255000 3.690000
27.013000 5.569000 5.663000
21.136999 4.263000 3.332000
20.927999 4.321000 4.008000
26.962999 5.713000 6.158000
21.101999 4.297000 2.956000
20.893999 4.358000 3.657000
26.913000 5.745000 5.656000
20.892000 4.363000 3.302000
20.693001 4.423000 3.973000
26.638000 5.842000 6.099000
20.861000 4.396000 2.930000
20.643999 4.455000 3.622000
26.597000 5.875000 5.603000
20.650999 4.462000 3.272000
20.448999 4.521000 3.936000
26.353001 5.975000 6.049000
20.617001 4.491000 2.903000
20.410000 4.552000 3.591000
26.291000 6.002000 5.554000
20.422001 4.560000 3.245000
20.222000 4.619000 3.902000
26.013000 6.094000 5.986000
20.386000 4.588000 2.879000
20.194000 4.652000 3.562000
26.011000 6.130000 5.509000
20.195999 4.655000 3.217000
19.971001 4.709000 3.865000
25.733999 6.223000 5.938000
20.159000 4.681000 2.855000
19.951000 4.741000 3.528000
25.662001 6.240000 5.449000
19.969999 4.748000 3.189000
19.784000 4.811000 3.838000
25.421000 6.338000 5.881000
19.938999 4.773000 2.832000
19.730000 4.833000 3.499000
19.537001 4.897000 4.160000
19.750999 4.840000 3.164000
19.531000 4.893000 3.799000
25.108999 6.450000 5.824000
19.716000 4.863000 2.807000
19.520000 4.926000 3.471000
19.326000 4.988000 4.126000
19.530001 4.927000 3.137000
19.319000 4.984000 3.769000
24.813000 6.563000 5.773000
19.490000 4.948000 2.784000
19.299000 5.012000 3.441000
19.322001 5.133000 4.136000
19.313999 5.015000 3.111000
19.261000 5.113000 3.768000
24.577000 6.688000 5.734000
19.295000 5.038000 2.764000
19.218000 5.133000 3.437000
24.535999 6.704000 5.268000
19.158001 5.115000 3.095000
19.354000 5.282000 3.797000
24.287001 6.795000 5.681000
19.145000 5.139000 2.750000
19.278999 5.293000 3.458000
24.316000 6.827000 5.236000
19.229000 5.275000 3.115000
19.403999 5.442000 3.818000
23.997999 6.899000 5.631000
19.205000 5.296000 2.767000
19.365000 5.461000 3.483000
23.990000 6.919000 5.180000
19.306999 5.440000 3.137000
19.461000 5.605000 3.840000
23.173000 6.839000 5.453000
19.275999 5.456000 2.786000
19.417000 5.621000 3.503000
23.225000 6.876000 5.030000
19.361000 5.599000 3.155000
19.549000 5.778000 3.869000
23.207001 7.030000 5.477000
19.337000 5.617000 2.802000
19.483999 5.786000 3.525000
23.311001 7.079000 5.064000
19.458000 5.771000 3.180000
23.259001 7.051000 4.617000
23.235001 7.219000 5.500000
19.416000 5.783000 2.823000
19.559999 5.957000 3.550000
23.257000 7.243000 5.066000
19.518999 5.935000 3.199000
23.278000 7.233000 4.634000
23.007999 7.328000 5.463000
19.469999 5.943000 2.839000
23.253000 7.257000 4.232000
22.988001 7.337000 5.023000
23.288000 7.257000 3.829000
23.018999 7.331000 4.596000
22.726999 7.417000 5.412000
23.226000 7.263000 3.396000
23.046000 7.366000 4.207000
22.754000 7.438000 4.987000
23.073999 7.363000 3.805000
22.791000 7.432000 4.564000
22.507000 7.523000 5.377000
22.961000 7.352000 3.368000
22.789000 7.460000 4.173000
22.537001 7.543000 4.953000
22.830999 7.458000 3.775000
22.589001 7.540000 4.537000
22.264000 7.617000 5.335000
22.761999 7.459000 3.349000
22.537001 7.549000 4.139000
22.254999 7.624000 4.907000
22.573999 7.546000 3.744000
22.306999 7.620000 4.494000
22.025999 7.712000 5.294000
21.943001 7.356000 3.237000
22.318001 7.647000 4.111000
22.033001 7.720000 4.873000
22.362000 7.645000 3.720000
22.091999 7.718000 4.464000
21.795000 7.804000 5.254000
21.676001 7.431000 3.207000
22.108999 7.747000 4.084000
21.827000 7.822000 4.842000
21.499001 7.515000 3.586000
21.872000 7.811000 4.433000
21.577999 7.899000 5.218000
22.087999 7.739000 3.278000
21.900000 7.843000 4.057000
21.618999 7.918000 4.810000
21.233999 7.585000 3.553000
21.650000 7.903000 4.401000
21.403999 8.009000 5.192000
21.886000 7.836000 3.257000
21.049000 7.701000 3.911000
21.412001 8.011000 4.778000
21.657000 7.903000 3.634000
21.431999 7.992000 4.369000
21.171000 8.092000 5.151000
21.660000 7.921000 3.233000
20.804001 7.776000 3.877000
21.174999 8.094000 4.740000
21.535000 8.025000 3.623000
20.628000 7.854000 4.217000
20.966000 8.183000 5.117000
21.438999 8.004000 3.209000
21.157000 8.073000 3.954000
20.641001 8.055000 4.634000
21.261000 8.089000 3.588000
20.379000 7.923000 4.179000
20.747999 8.269000 5.079000
21.245001 8.096000 3.188000
21.002001 8.179000 3.936000
20.188000 8.040000 4.546000
21.082001 8.185000 3.568000
20.806999 8.255000 4.279000
19.656000 7.995000 4.826000
21.035000 8.179000 3.166000
20.787001 8.261000 3.907000
19.408001 7.889000 4.383000
20.879999 8.271000 3.542000
18.931999 7.662000 3.904000
18.747000 7.779000 4.617000
20.840000 8.265000 3.144000
18.969000 7.689000 3.575000
18.771999 7.782000 4.252000
19.046000 7.694000 3.241000
18.823999 7.771000 3.893000
18.577000 7.863000 4.589000
19.055000 7.707000 2.882000
18.841000 7.786000 3.561000
18.601999 7.864000 4.226000
18.892000 7.781000 3.223000
18.650000 7.849000 3.868000
18.882000 8.148000 4.678000
18.898001 7.791000 2.866000
18.658001 7.862000 3.536000
18.908001 8.150000 4.307000
18.700001 7.852000 3.198000
18.924000 8.118000 3.935000
18.955000 8.338000 4.710000
18.719999 7.864000 2.846000
18.951000 8.137000 3.601000
18.976999 8.335000 4.335000
18.987000 8.123000 3.256000
19.000999 8.307000 3.962000
19.028999 8.532000 4.742000
19.030001 8.145000 2.901000
19.030001 8.324000 3.625000
19.079000 8.537000 4.371000
19.063000 8.307000 3.277000
19.077000 8.496000 3.989000
19.047001 8.700000 4.760000
19.103001 8.329000 2.918000
19.113001 8.517000 3.650000
19.090000 8.703000 4.385000
19.143000 8.495000 3.299000
19.146000 8.683000 4.013000
19.129000 8.898000 4.794000
19.177000 8.513000 2.935000
19.169001 8.698000 3.669000
19.068001 8.852000 4.392000
19.202000 8.678000 3.316000
19.000999 8.776000 3.993000
18.952000 8.978000 4.763000
19.232000 8.691000 2.951000
19.059999 8.803000 3.657000
18.858999 8.912000 4.355000
19.063000 8.768000 3.299000
19.063999 8.963000 4.016000
18.785999 9.060000 4.734000
19.120001 8.795000 2.938000
19.091999 8.976000 3.672000
18.688999 8.991000 4.327000
19.135000 8.957000 3.319000
18.867001 9.027000 3.985000
18.582001 9.120000 4.695000
19.153999 8.964000 2.949000
18.898001 9.041000 3.642000
18.509001 9.061000 4.296000
18.951000 9.026000 3.293000
18.698999 9.104000 3.958000
18.403000 9.192000 4.662000
18.976999 9.035000 2.928000
18.709999 9.106000 3.615000
18.337000 9.132000 4.266000
18.799000 9.107000 3.273000
18.549000 9.185000 3.934000
18.256001 9.276000 4.637000
18.808001 9.108000 2.906000
18.579000 9.197000 3.596000
18.207001 9.224000 4.246000
18.601000 9.165000 3.245000
18.351999 9.243000 3.902000
18.077000 9.342000 4.603000
18.639000 9.177000 2.884000
18.384001 9.253000 3.565000
18.049000 9.298000 4.218000
18.450001 9.243000 3.223000
18.181999 9.312000 3.873000
17.888000 9.401000 4.565000
18.452000 9.236000 2.860000
18.215000 9.321000 3.539000
17.931999 9.391000 4.200000
18.298000 9.318000 3.202000
18.042000 9.392000 3.850000
17.753000 9.485000 4.541000
18.320000 9.321000 2.842000
18.065001 9.397000 3.515000
17.771999 9.463000 4.171000
18.108999 9.372000 3.174000
17.844999 9.442000 3.816000
17.554001 9.532000 4.500000
18.132000 9.374000 2.816000
17.872999 9.447000 3.483000
17.615000 9.531000 4.143000
17.966000 9.449000 3.152000
17.708000 9.522000 3.793000
17.437000 9.624000 4.480000
17.989000 9.449000 2.797000
17.738001 9.525000 3.463000
17.480000 9.609000 4.118000
17.792999 9.505000 3.125000
17.527000 9.574000 3.760000
17.257999 9.678000 4.443000
17.809000 9.502000 2.770000
17.568001 9.584000 3.433000
17.284000 9.653000 4.079000
17.656000 9.581000 3.105000
17.392000 9.650000 3.737000
17.112000 9.748000 4.415000
17.680000 9.580000 2.751000
17.427999 9.655000 3.410000
17.165001 9.737000 4.058000
17.473000 9.629000 3.074000
17.219000 9.703000 3.704000
16.934999 9.798000 4.376000
17.497000 9.626000 2.725000
17.249001 9.703000 3.379000
16.983999 9.783000 4.022000
17.351000 9.707000 3.055000
17.093000 9.779000 3.682000
16.801001 9.870000 4.349000
17.382000 9.709000 2.706000
17.136999 9.788000 3.359000
16.856001 9.858000 3.997000
17.173000 9.754000 3.026000
16.912001 9.823000 3.648000
16.639000 9.924000 4.315000
17.204000 9.752000 2.678000
16.952999 9.827000 3.325000
16.698000 9.912000 3.964000
17.013000 9.807000 2.998000
16.792000 9.899000 3.624000
16.514000 9.997000 4.288000
17.080999 9.827000 2.660000
16.819000 9.895000 3.302000
16.554001 9.973000 3.935000
16.816999 9.836000 2.964000
16.639000 9.953000 3.593000
16.357000 10.049000 4.252000
16.905001 9.868000 2.630000
16.694000 9.965000 3.278000
16.441000 10.050000 3.912000
16.691999 9.905000 2.942000
16.516001 10.024000 3.570000
16.194000 10.095000 4.216000
16.784000 9.938000 2.610000
16.534000 10.011000 3.247000
16.290001 10.103000 3.878000
16.450001 9.902000 2.898000
16.381001 10.086000 3.541000
15.983000 10.108000 4.165000
16.662001 10.006000 2.589000
16.422001 10.085000 3.226000
16.146000 10.157000 3.847000
16.326000 9.967000 2.875000
16.223000 10.129000 3.508000
15.847000 10.165000 4.132000
16.502001 10.050000 2.560000
16.283001 10.141000 3.197000
16.002001 10.208000 3.815000
16.193001 10.023000 2.850000
16.098000 10.192000 3.482000
15.662000 10.188000 4.088000
16.365000 10.105000 2.536000
16.113001 10.174000 3.162000
15.871000 10.265000 3.783000
16.038000 10.064000 2.819000
15.976000 10.255000 3.454000
15.512000 10.229000 4.050000
16.233999 10.161000 2.512000
15.988000 10.234000 3.136000
15.737000 10.319000 3.753000
15.929000 10.132000 2.797000
15.849000 10.312000 3.426000
15.407000 10.299000 4.023000
16.099001 10.213000 2.485000
15.880000 10.302000 3.111000
15.627000 10.385000 3.726000
15.835000 10.207000 2.777000
15.670000 10.333000 3.386000
14.926000 10.113000 3.899000
15.983000 10.274000 2.462000
15.725000 10.336000 3.078000
15.247000 10.267000 3.633000
15.773000 10.302000 2.760000
15.573000 10.405000 3.361000
14.939000 10.256000 3.903000
15.842000 10.317000 2.434000
15.600000 10.389000 3.050000
14.864000 10.141000 3.541000
15.683000 10.377000 2.739000
14.947000 10.115000 3.222000
14.965000 10.408000 3.907000
15.742000 10.385000 2.411000
14.996000 10.116000 2.926000
15.016000 10.378000 3.575000
15.450000 10.354000 2.693000
15.017000 10.294000 3.234000
15.018000 10.580000 3.920000
15.591000 10.416000 2.381000
14.964000 10.223000 2.914000
15.116000 10.580000 3.594000
14.953000 10.148000 2.598000
15.026000 10.431000 3.230000
14.896000 10.627000 3.886000
14.992000 10.141000 2.281000
15.048000 10.409000 2.925000
15.011000 10.639000 3.566000
15.080000 10.361000 2.613000
15.065000 10.589000 3.234000
14.801000 10.691000 3.856000
15.102000 10.342000 2.288000
15.138000 10.601000 2.934000
14.883000 10.677000 3.530000
15.198000 10.570000 2.625000
14.956000 10.640000 3.204000
14.685000 10.738000 3.823000
15.217000 10.548000 2.296000
15.002000 10.634000 2.901000
14.768000 10.724000 3.496000
15.105000 10.632000 2.599000
14.840000 10.685000 3.171000
14.585000 10.793000 3.792000
15.133000 10.615000 2.273000
14.877000 10.670000 2.868000
14.648000 10.764000 3.461000
14.998000 10.683000 2.571000
14.748000 10.744000 3.144000
14.479000 10.841000 3.757000
15.023000 10.662000 2.244000
14.775000 10.721000 2.837000
14.518000 10.792000 3.423000
14.878000 10.720000 2.540000
14.643000 10.791000 3.112000
14.375000 10.889000 3.724000
14.916000 10.709000 2.217000
14.666000 10.765000 2.807000
14.415000 10.839000 3.389000
14.774000 10.768000 2.509000
14.525000 10.826000 3.077000
14.261000 10.924000 3.686000
14.818000 10.759000 2.189000
14.530000 10.785000 2.770000
14.327000 10.894000 3.359000
14.674000 10.814000 2.480000
14.434000 10.879000 3.047000
14.168000 10.974000 3.651000
14.706000 10.797000 2.157000
14.396000 10.804000 2.732000
14.222000 10.933000 3.324000
14.560000 10.849000 2.448000
14.321000 10.912000 3.011000
14.049000 11.002000 3.612000
14.603000 10.839000 2.128000
14.254000 10.814000 2.692000
14.120000 10.973000 3.289000
14.467000 10.896000 2.417000
14.216000 10.947000 2.976000
13.962000 11.050000 3.578000
14.509000 10.884000 2.099000
14.146000 10.846000 2.657000
14.024000 11.012000 3.254000
14.360000 10.930000 2.385000
14.126000 10.993000 2.943000
13.876000 11.097000 3.544000
14.401000 10.918000 2.066000
14.060000 10.892000 2.627000
13.955000 11.071000 3.224000
14.267000 10.971000 2.353000
14.027000 11.027000 2.908000
13.770000 11.124000 3.504000
14.307000 10.958000 2.036000
14.025000 10.976000 2.604000
13.861000 11.109000 3.188000
14.164000 11.002000 2.318000
13.948000 11.074000 2.876000
13.669000 11.151000 3.464000
14.206000 10.990000 2.004000
13.996000 11.061000 2.582000
13.775000 11.147000 3.153000
14.079000 11.044000 2.287000
13.847000 11.102000 2.839000
13.565000 11.174000 3.422000
14.113000 11.025000 1.971000
13.928000 11.113000 2.552000
13.687000 11.180000 3.116000
13.994000 11.083000 2.255000
13.754000 11.132000 2.802000
13.525000 11.245000 3.396000
14.028000 11.064000 1.940000
13.836000 11.144000 2.516000
13.596000 11.210000 3.078000
13.894000 11.107000 2.218000
13.704000 11.193000 2.774000
13.436000 11.271000 3.356000
13.946000 11.101000 1.908000
13.737000 11.166000 2.479000
13.509000 11.238000 3.040000
13.807000 11.139000 2.185000
13.598000 11.206000 2.732000
13.366000 11.312000 3.320000
13.870000 11.140000 1.875000
13.638000 11.183000 2.441000
13.449000 11.285000 3.007000
13.750000 11.191000 2.155000
13.514000 11.233000 2.695000
13.261000 11.317000 3.275000
13.791000 11.175000 1.843000
13.570000 11.224000 2.407000
13.380000 11.322000 2.971000
13.663000 11.216000 2.119000
13.392000 11.225000 2.650000
13.214000 11.370000 3.243000
13.699000 11.196000 1.808000
13.521000 11.276000 2.376000
13.290000 11.337000 2.929000
13.585000 11.244000 2.083000
13.280000 11.222000 2.605000
13.152000 11.407000 3.206000
13.622000 11.225000 1.773000
13.440000 11.298000 2.338000
13.218000 11.363000 2.891000
13.529000 11.287000 2.051000
13.204000 11.244000 2.567000
13.063000 11.414000 3.161000
13.568000 11.270000 1.741000
13.345000 11.306000 2.297000
13.174000 11.411000 2.857000
13.451000 11.310000 2.014000
13.183000 11.310000 2.539000
12.983000 11.426000 3.118000
13.499000 11.299000 1.707000
13.314000 11.363000 2.267000
13.093000 11.422000 2.815000
13.365000 11.321000 1.975000
13.198000 11.405000 2.516000
12.957000 11.483000 3.087000
13.420000 11.316000 1.670000
13.240000 11.380000 2.229000
13.035000 11.448000 2.777000
13.327000 11.369000 1.943000
13.117000 11.413000 2.475000
12.872000 11.482000 3.041000
13.372000 11.357000 1.637000
13.182000 11.409000 2.192000
12.987000 11.482000 2.740000
13.256000 11.386000 1.906000
13.065000 11.441000 2.438000
12.850000 11.533000 3.009000
13.298000 11.370000 1.599000
13.141000 11.447000 2.157000
12.908000 11.482000 2.696000
13.186000 11.400000 1.867000
13.016000 11.470000 2.401000
12.776000 11.534000 2.963000
13.259000 11.411000 1.567000
13.056000 11.443000 2.116000
12.863000 11.508000 2.658000
13.160000 11.448000 1.834000
12.969000 11.496000 2.363000
12.741000 11.565000 2.926000
13.193000 11.425000 1.528000
13.027000 11.484000 2.080000
12.760000 11.480000 2.607000
13.088000 11.452000 1.795000
12.909000 11.505000 2.324000
12.679000 11.569000 2.882000
13.133000 11.440000 1.491000
12.953000 11.482000 2.038000
12.680000 11.465000 2.561000
13.057000 11.489000 1.759000
12.873000 11.532000 2.285000
12.665000 11.612000 2.848000
13.091000 11.466000 1.456000
12.931000 11.522000 2.005000
12.650000 11.493000 2.524000
12.980000 11.480000 1.718000
12.827000 11.547000 2.246000
12.627000 11.627000 2.807000
13.046000 11.487000 1.418000
12.873000 11.526000 1.963000
12.666000 11.558000 2.495000
12.953000 11.513000 1.683000
12.804000 11.578000 2.210000
12.580000 11.630000 2.764000
12.940000 11.449000 1.374000
12.835000 11.543000 1.925000
12.680000 11.618000 2.465000
12.922000 11.537000 1.645000
12.746000 11.573000 2.166000
12.562000 11.657000 2.726000
12.701000 11.288000 1.317000
12.821000 11.578000 1.890000
12.651000 11.633000 2.425000
12.876000 11.544000 1.606000
12.724000 11.596000 2.129000
12.535000 11.669000 2.686000
12.473000 11.133000 1.259000
12.768000 11.573000 1.847000
12.606000 11.629000 2.382000
12.863000 11.576000 1.571000
12.704000 11.616000 2.092000
12.481000 11.652000 2.639000
12.435000 11.141000 1.222000
12.743000 11.589000 1.809000
12.598000 11.656000 2.345000
12.819000 11.577000 1.529000
12.674000 11.623000 2.050000
12.426000 11.628000 2.591000
12.428000 11.173000 1.188000
12.736000 11.618000 1.773000
12.585000 11.673000 2.308000
12.786000 11.582000 1.490000
12.633000 11.615000 2.008000
12.360000 11.590000 2.541000
12.564000 11.330000 1.165000
12.712000 11.626000 1.733000
12.550000 11.665000 2.263000
12.776000 11.604000 1.454000
12.630000 11.638000 1.972000
12.367000 11.618000 2.506000
12.778000 11.556000 1.150000
12.683000 11.625000 1.692000
12.530000 11.666000 2.222000
12.768000 11.624000 1.415000
12.628000 11.657000 1.933000
12.422000 11.683000 2.478000
12.805000 11.608000 1.116000
12.663000 11.629000 1.654000
12.516000 11.669000 2.183000
12.709000 11.592000 1.372000
12.620000 11.667000 1.895000
12.427000 11.698000 2.440000
12.798000 11.624000 1.078000
12.652000 11.635000 1.614000
12.508000 11.672000 2.142000
12.465000 11.389000 1.310000
12.610000 11.671000 1.856000
12.422000 11.698000 2.401000
12.783000 11.629000 1.039000
12.655000 11.651000 1.576000
12.504000 11.674000 2.103000
12.276000 11.229000 1.253000
12.599000 11.668000 1.815000
12.420000 11.697000 2.359000
12.765000 11.628000 1.001000
12.658000 11.661000 1.539000
12.513000 11.684000 2.066000
12.256000 11.220000 1.214000
12.596000 11.668000 1.776000
12.438000 11.710000 2.323000
12.742000 11.618000 0.960000
12.657000 11.665000 1.499000
12.517000 11.685000 2.027000
12.305000 11.269000 1.183000
12.603000 11.673000 1.738000
12.465000 11.728000 2.288000
12.735000 11.617000 0.922000
12.644000 11.652000 1.459000
12.517000 11.678000 1.986000
12.567000 11.511000 1.169000
12.621000 11.684000 1.700000
12.472000 11.721000 2.248000
12.742000 11.625000 0.884000
12.662000 11.664000 1.423000
12.518000 11.667000 1.946000
12.696000 11.625000 1.143000
12.614000 11.668000 1.659000
12.471000 11.703000 2.206000
12.742000 11.621000 0.845000
12.660000 11.652000 1.382000
12.526000 11.658000 1.907000
12.714000 11.634000 1.106000
12.641000 11.678000 1.624000
12.495000 11.703000 2.169000
12.743000 11.616000 0.807000
12.565000 11.551000 1.333000
12.561000 11.669000 1.870000
12.725000 11.631000 1.066000
12.656000 11.672000 1.584000
12.498000 11.679000 2.128000
12.759000 11.619000 0.770000
12.281000 11.273000 1.265000
12.596000 11.677000 1.836000
12.744000 11.632000 1.030000
12.663000 11.655000 1.545000
12.514000 11.663000 2.088000
12.794000 11.634000 0.732000
12.249000 11.221000 1.222000
12.625000 11.674000 1.799000
12.762000 11.628000 0.992000
12.671000 11.636000 1.507000
12.585000 11.694000 2.058000
12.814000 11.632000 0.695000
12.278000 11.222000 1.187000
12.647000 11.660000 1.760000
12.795000 11.632000 0.954000
12.701000 11.631000 1.469000
12.603000 11.671000 2.020000
12.829000 11.622000 0.657000
12.519000 11.411000 1.172000
12.669000 11.643000 1.723000
12.819000 11.624000 0.918000
12.745000 11.636000 1.434000
12.634000 11.657000 1.981000
12.851000 11.613000 0.619000
12.764000 11.599000 1.155000
12.705000 11.634000 1.687000
12.824000 11.595000 0.879000
12.773000 11.620000 1.398000
12.652000 11.625000 1.943000
12.852000 11.581000 0.581000
12.799000 11.592000 1.119000
12.751000 11.629000 1.651000
12.849000 11.580000 0.841000
12.740000 11.546000 1.353000
12.715000 11.633000 1.911000
12.890000 11.578000 0.545000
12.821000 11.569000 1.082000
12.771000 11.598000 1.614000
12.907000 11.590000 0.807000
12.495000 11.278000 1.289000
12.755000 11.613000 1.874000
12.937000 11.579000 0.508000
12.886000 11.579000 1.047000
12.812000 11.582000 1.578000
12.927000 11.562000 0.770000
12.415000 11.155000 1.243000
12.772000 11.570000 1.836000
12.969000 11.563000 0.472000
12.919000 11.558000 1.012000
12.868000 11.573000 1.543000
12.965000 11.546000 0.733000
12.449000 11.132000 1.207000
12.850000 11.578000 1.806000
13.000000 11.542000 0.436000
12.956000 11.537000 0.976000
12.890000 11.533000 1.507000
13.023000 11.545000 0.699000
12.566000 11.179000 1.181000
12.876000 11.535000 1.768000
13.058000 11.541000 0.400000
13.010000 11.526000 0.941000
12.969000 11.539000 1.477000
13.050000 11.513000 0.664000
12.906000 11.420000 1.175000
12.960000 11.540000 1.740000
13.087000 11.510000 0.365000
13.038000 11.489000 0.906000
12.998000 11.496000 1.439000
13.101000 11.496000 0.628000
13.067000 11.496000 1.150000
12.986000 11.492000 1.703000
13.139000 11.496000 0.330000
13.112000 11.489000 0.874000
13.081000 11.497000 1.410000
13.160000 11.484000 0.595000
13.122000 11.474000 1.118000
13.077000 11.495000 1.675000
13.195000 11.482000 0.294000
13.156000 11.459000 0.840000
12.986000 11.341000 1.362000
13.197000 11.449000 0.561000
13.183000 11.455000 1.086000
13.117000 11.451000 1.641000
13.240000 11.454000 0.261000
13.237000 11.457000 0.808000
12.800000 11.102000 1.305000
13.276000 11.447000 0.527000
13.236000 11.425000 1.053000
13.190000 11.433000 1.611000
13.303000 11.439000 0.228000
13.269000 11.409000 0.774000
12.787000 11.013000 1.268000
13.323000 11.412000 0.495000
13.318000 11.416000 1.023000
13.278000 11.424000 1.583000
13.363000 11.417000 0.193000
13.359000 11.408000 0.744000
12.854000 10.990000 1.238000
13.392000 11.395000 0.463000
13.355000 11.366000 0.990000
13.299000 11.355000 1.548000
13.410000 11.381000 0.161000
13.416000 11.375000 0.712000
13.033000 11.058000 1.220000
13.466000 11.377000 0.430000
13.443000 11.356000 0.961000
13.398000 11.349000 1.522000
13.439000 11.327000 0.128000
13.459000 11.327000 0.680000
13.344000 11.235000 1.213000
13.497000 11.321000 0.398000
13.536000 11.345000 0.932000
13.490000 11.332000 1.495000
13.432000 11.238000 0.095000
13.561000 11.326000 0.651000
13.537000 11.305000 1.195000
13.610000 11.330000 0.369000
13.566000 11.282000 0.900000
13.539000 11.279000 1.464000
13.554000 11.255000 0.065000
13.614000 11.280000 0.620000
13.634000 11.291000 1.168000
13.675000 11.294000 0.338000
13.665000 11.271000 0.872000
13.589000 11.224000 1.434000
13.685000 11.276000 0.034000
13.690000 11.251000 0.591000
13.683000 11.235000 1.138000
13.724000 11.244000 0.307000
13.754000 11.248000 0.845000
13.467000 11.023000 1.387000
13.755000 11.243000 0.003000
13.788000 11.237000 0.563000
13.757000 11.198000 1.111000
13.823000 11.231000 0.279000
13.807000 11.194000 0.815000
13.311000 10.797000 1.337000
13.843000 11.221000 -0.025000
13.872000 11.207000 0.535000
13.860000 11.179000 1.086000
13.906000 11.202000 0.250000
13.889000 11.161000 0.788000
13.388000 10.760000 1.313000
13.940000 11.205000 -0.055000
13.932000 11.157000 0.506000
13.958000 11.155000 1.061000
13.959000 11.146000 0.221000
14.005000 11.151000 0.763000
13.490000 10.738000 1.290000
13.995000 11.150000 -0.084000
14.031000 11.135000 0.480000
14.050000 11.124000 1.036000
14.014000 11.090000 0.193000
14.095000 11.119000 0.738000
13.741000 10.833000 1.283000
14.085000 11.121000 -0.112000
14.123000 11.103000 0.453000
14.125000 11.075000 1.010000
14.049000 11.014000 0.165000
14.183000 11.082000 0.712000
14.075000 10.987000 1.282000
14.177000 11.092000 -0.140000
14.229000 11.081000 0.428000
14.203000 11.027000 0.986000
14.149000 10.990000 0.139000
14.257000 11.031000 0.686000
14.250000 11.010000 1.267000
14.280000 11.066000 -0.168000
14.305000 11.033000 0.402000
14.289000 10.984000 0.962000
14.278000 10.984000 0.113000
14.330000 10.978000 0.662000
14.363000 10.985000 1.246000
14.367000 11.027000 -0.195000
14.407000 11.000000 0.377000
14.407000 10.961000 0.940000
14.430000 10.990000 0.087000
14.442000 10.952000 0.640000
14.470000 10.953000 1.226000
14.469000 10.998000 -0.221000
14.487000 10.951000 0.353000
14.508000 10.924000 0.919000
14.511000 10.942000 0.062000
14.539000 10.911000 0.616000
14.574000 10.913000 1.205000
14.556000 10.952000 -0.247000
14.572000 10.902000 0.330000
14.609000 10.885000 0.897000
14.597000 10.894000 0.038000
14.656000 10.885000 0.594000
14.672000 10.868000 1.185000
14.638000 10.901000 -0.272000
14.679000 10.867000 0.306000
14.719000 10.848000 0.877000
14.705000 10.861000 0.015000
14.749000 10.837000 0.573000
14.757000 10.812000 1.164000
14.737000 10.861000 -0.297000
14.770000 10.818000 0.283000
14.824000 10.807000 0.857000
14.809000 10.821000 -0.008000
14.864000 10.803000 0.551000
14.858000 10.765000 1.145000
14.837000 10.819000 -0.321000
14.856000 10.763000 0.262000
14.929000 10.763000 0.837000
14.915000 10.782000 -0.031000
14.971000 10.762000 0.531000
14.997000 10.743000 1.129000
14.945000 10.780000 -0.345000
14.903000 10.678000 0.239000
