# This PCD file was generated using the MATLAB® pcwrite function
# from Computer Vision Toolbox®.
# .PCD v.7 - Point Cloud Data file format
VERSION .7
FIELDS x y z
SIZE 4 4 4
TYPE F F F
COUNT 1 1 1
WIDTH 1656
HEIGHT 1
VIEWPOINT 0 0 0 1 0 0 0
POINTS 1656
DATA ascii
22.705000 -2.931000 1.534000
19.629999 -2.499000 0.373000
20.711000 -2.631000 1.049000
22.705000 -2.886000 1.916000
18.945999 -2.357000 0.039000
20.514000 -2.542000 0.717000
22.757000 -2.820000 1.534000
19.667000 -2.403000 0.371000
20.684000 -2.520000 1.044000
22.743000 -2.773000 1.915000
18.938000 -2.260000 0.037000
20.483000 -2.432000 0.713000
22.805000 -2.707000 1.533000
19.631001 -2.297000 0.367000
20.670000 -2.412000 1.040000
22.794001 -2.660000 1.915000
18.948999 -2.165000 0.034000
20.486000 -2.327000 0.710000
20.983000 -2.383000 1.407000
19.580999 -2.192000 0.364000
20.645000 -2.303000 1.036000
22.841000 -2.546000 1.915000
18.936001 -2.067000 0.032000
20.441999 -2.218000 0.706000
20.888000 -2.264000 1.397000
19.618999 -2.096000 0.362000
20.656000 -2.197000 1.033000
22.892000 -2.433000 1.915000
18.937000 -1.971000 0.030000
20.374001 -2.106000 0.700000
20.832001 -2.149000 1.390000
19.688999 -2.004000 0.361000
20.658001 -2.092000 1.030000
22.940001 -2.319000 1.915000
18.922001 -1.873000 0.027000
20.462000 -2.010000 0.701000
20.809000 -2.040000 1.385000
19.761000 -1.910000 0.360000
20.628000 -1.983000 1.026000
22.976000 -2.203000 1.914000
18.923000 -1.778000 0.025000
20.523001 -1.912000 0.700000
20.839001 -1.936000 1.384000
20.063999 -1.837000 0.363000
20.600000 -1.875000 1.022000
23.035000 -2.091000 1.915000
18.914000 -1.681000 0.023000
20.517000 -1.807000 0.697000
20.670000 -1.814000 1.370000
0.000000 0.000000 0.000000
20.580000 -1.768000 1.018000
23.062000 -1.973000 1.914000
18.891001 -1.584000 0.021000
20.513000 -1.703000 0.695000
20.701000 -1.711000 1.369000
20.257000 -1.650000 0.362000
20.604000 -1.665000 1.017000
23.111000 -1.859000 1.915000
18.900999 -1.490000 0.020000
20.533001 -1.600000 0.693000
20.754000 -1.609000 1.370000
20.393000 -1.558000 0.362000
20.533001 -1.555000 1.011000
23.169001 -1.745000 1.917000
18.924000 -1.396000 0.018000
20.551001 -1.497000 0.691000
20.709999 -1.499000 1.365000
20.355000 -1.453000 0.359000
20.549999 -1.452000 1.009000
23.209000 -1.628000 1.917000
18.941999 -1.303000 0.016000
20.534000 -1.392000 0.689000
20.686001 -1.392000 1.360000
20.399000 -1.353000 0.358000
20.532000 -1.345000 1.006000
23.261999 -1.513000 1.919000
18.927000 -1.207000 0.014000
20.535000 -1.288000 0.687000
20.657000 -1.285000 1.356000
20.469999 -1.254000 0.357000
20.525999 -1.242000 1.003000
23.316999 -1.397000 1.920000
18.945999 -1.113000 0.013000
20.545000 -1.186000 0.685000
20.747000 -1.185000 1.360000
20.382000 -1.147000 0.354000
20.554001 -1.139000 1.003000
23.358999 -1.279000 1.921000
18.945000 -1.018000 0.011000
20.517000 -1.080000 0.682000
20.732000 -1.078000 1.357000
20.315001 -1.041000 0.351000
20.535000 -1.033000 1.000000
21.047001 -1.045000 1.729000
18.968000 -0.925000 0.010000
20.532000 -0.977000 0.681000
20.784000 -0.976000 1.358000
20.438000 -0.945000 0.352000
20.548000 -0.931000 0.999000
21.059000 -0.938000 1.728000
18.969999 -0.830000 0.009000
20.525999 -0.874000 0.679000
20.768999 -0.870000 1.356000
20.458000 -0.843000 0.351000
20.535999 -0.826000 0.997000
20.982000 -0.827000 1.720000
18.990999 -0.736000 0.007000
20.517000 -0.771000 0.677000
20.730000 -0.763000 1.351000
20.472000 -0.742000 0.349000
20.542999 -0.724000 0.995000
20.958000 -0.720000 1.716000
19.052000 -0.644000 0.006000
20.523001 -0.667000 0.676000
20.733999 -0.658000 1.350000
20.431000 -0.638000 0.347000
20.558001 -0.620000 0.995000
20.885000 -0.611000 1.708000
19.097000 -0.550000 0.005000
20.500000 -0.564000 0.674000
20.754000 -0.554000 1.350000
20.362000 -0.534000 0.345000
20.506001 -0.516000 0.991000
20.819000 -0.503000 1.701000
19.188999 -0.457000 0.004000
20.488001 -0.461000 0.673000
20.732000 -0.448000 1.347000
20.073999 -0.427000 0.339000
20.589001 -0.414000 0.994000
20.816000 -0.398000 1.700000
19.226000 -0.363000 0.003000
20.520000 -0.359000 0.672000
20.740000 -0.344000 1.346000
20.176001 -0.328000 0.340000
20.658001 -0.311000 0.996000
20.874001 -0.293000 1.703000
19.261999 -0.267000 0.002000
20.552999 -0.257000 0.672000
20.719999 -0.239000 1.344000
19.563999 -0.220000 0.329000
20.677999 -0.209000 0.996000
20.825001 -0.187000 1.698000
19.299999 -0.173000 0.002000
20.635000 -0.155000 0.674000
20.711000 -0.134000 1.342000
19.556999 -0.123000 0.328000
20.669001 -0.104000 0.994000
20.785999 -0.081000 1.694000
19.299000 -0.077000 0.001000
20.627001 -0.051000 0.673000
20.757000 -0.030000 1.344000
19.540001 -0.026000 0.327000
20.698000 0.000000 0.995000
20.864000 0.023000 1.699000
19.268999 0.017000 0.000000
20.615000 0.050000 0.672000
20.760000 0.074000 1.344000
19.569000 0.071000 0.326000
20.760000 0.102000 0.997000
20.783001 0.128000 1.692000
19.285000 0.113000 0.000000
20.618000 0.153000 0.671000
20.799000 0.179000 1.346000
19.568001 0.168000 0.326000
20.771000 0.207000 0.997000
20.816000 0.235000 1.694000
19.294001 0.208000 0.000000
20.639999 0.256000 0.672000
20.829000 0.284000 1.347000
19.577000 0.265000 0.326000
20.790001 0.311000 0.997000
21.417999 0.349000 1.743000
19.288000 0.304000 0.000000
20.655001 0.360000 0.672000
20.861000 0.389000 1.349000
19.603001 0.363000 0.325000
20.825001 0.415000 0.999000
21.407000 0.457000 1.742000
19.308001 0.400000 -0.001000
20.666000 0.462000 0.672000
20.886000 0.495000 1.350000
19.618999 0.460000 0.325000
20.856001 0.521000 1.000000
21.511999 0.569000 1.750000
19.344000 0.496000 -0.001000
20.666000 0.566000 0.671000
20.892000 0.600000 1.350000
19.645000 0.558000 0.325000
20.848000 0.625000 0.999000
21.424999 0.674000 1.743000
19.322001 0.591000 -0.002000
20.639000 0.673000 0.671000
20.885000 0.710000 1.351000
19.679001 0.663000 0.327000
20.853001 0.734000 1.000000
22.158001 0.815000 1.804000
19.341000 0.693000 -0.001000
20.639000 0.776000 0.671000
20.912001 0.816000 1.353000
19.750999 0.763000 0.328000
20.834000 0.838000 1.000000
22.106001 0.925000 1.800000
19.370001 0.789000 -0.001000
20.662001 0.880000 0.672000
20.924000 0.922000 1.354000
20.069000 0.875000 0.333000
20.834000 0.943000 1.000000
22.115000 1.037000 1.801000
19.365999 0.885000 -0.001000
20.646000 0.982000 0.672000
20.955999 1.029000 1.356000
20.330999 0.986000 0.338000
20.815001 1.045000 0.999000
22.104000 1.148000 1.801000
19.381001 0.982000 -0.001000
20.667999 1.086000 0.673000
21.037001 1.138000 1.362000
20.322001 1.087000 0.338000
20.797001 1.149000 0.999000
22.025999 1.256000 1.795000
19.409000 1.079000 -0.001000
20.653000 1.188000 0.673000
20.978001 1.240000 1.358000
20.416000 1.194000 0.340000
20.785999 1.252000 0.999000
22.167000 1.375000 1.807000
19.416000 1.175000 -0.001000
20.656000 1.291000 0.673000
21.097000 1.354000 1.367000
20.434999 1.295000 0.340000
20.789000 1.356000 0.999000
22.051001 1.480000 1.798000
19.423000 1.272000 -0.001000
20.622999 1.391000 0.672000
21.084000 1.458000 1.367000
20.408001 1.396000 0.340000
20.789000 1.460000 1.000000
22.028000 1.590000 1.797000
19.427999 1.368000 -0.001000
20.614000 1.493000 0.673000
21.069000 1.564000 1.366000
20.405001 1.497000 0.340000
20.766001 1.562000 1.000000
22.136999 1.709000 1.807000
19.408001 1.463000 0.000000
20.610001 1.596000 0.673000
21.066000 1.668000 1.367000
20.334999 1.592000 0.340000
20.768000 1.666000 1.000000
24.690001 2.031000 2.017000
19.419001 1.560000 0.000000
20.603001 1.698000 0.674000
21.139999 1.781000 1.373000
20.035000 1.668000 0.335000
20.757999 1.769000 1.001000
24.754000 2.161000 2.024000
19.431999 1.656000 0.000000
20.577999 1.798000 0.674000
21.184999 1.892000 1.377000
19.870001 1.753000 0.333000
20.778000 1.874000 1.003000
24.804001 2.291000 2.029000
19.412001 1.751000 0.000000
20.530001 1.897000 0.673000
21.073999 1.987000 1.371000
19.811001 1.846000 0.333000
20.728001 1.974000 1.001000
24.850000 2.421000 2.035000
19.395000 1.845000 0.001000
20.455000 1.991000 0.671000
21.014999 2.087000 1.369000
19.809999 1.945000 0.333000
20.672001 2.073000 1.000000
24.906000 2.552000 2.042000
19.385000 1.940000 0.001000
20.382999 2.086000 0.670000
21.014999 2.194000 1.370000
19.787001 2.040000 0.333000
20.587999 2.167000 0.997000
24.966000 2.685000 2.048000
19.374001 2.035000 0.002000
20.257000 2.175000 0.666000
21.084000 2.306000 1.376000
19.754000 2.135000 0.334000
20.554001 2.267000 0.996000
24.903000 2.805000 2.045000
19.386000 2.132000 0.002000
20.136999 2.262000 0.664000
21.237000 2.430000 1.387000
19.718000 2.230000 0.334000
20.590000 2.373000 0.999000
24.660000 2.901000 2.028000
19.351000 2.225000 0.003000
20.062000 2.354000 0.662000
21.343000 2.551000 1.396000
19.714001 2.327000 0.335000
20.636000 2.482000 1.003000
24.423000 2.998000 2.010000
19.357000 2.322000 0.004000
20.084999 2.457000 0.664000
21.520000 2.680000 1.409000
19.687000 2.422000 0.335000
20.700001 2.594000 1.007000
24.195000 3.092000 1.993000
19.351000 2.416000 0.004000
20.134001 2.564000 0.667000
21.584999 2.797000 1.416000
19.700001 2.522000 0.336000
20.736000 2.702000 1.011000
23.968000 3.185000 1.978000
19.340000 2.512000 0.005000
20.339001 2.692000 0.675000
21.701000 2.921000 1.425000
19.725000 2.623000 0.338000
20.858999 2.823000 1.018000
23.740999 3.276000 1.961000
19.336000 2.607000 0.006000
20.344999 2.794000 0.677000
23.693001 3.309000 1.558000
19.746000 2.725000 0.339000
20.992001 2.948000 1.026000
23.525999 3.365000 1.945000
19.356001 2.706000 0.006000
20.438999 2.910000 0.681000
23.471001 3.397000 1.546000
19.759001 2.826000 0.340000
21.162001 3.077000 1.036000
23.281000 3.448000 1.928000
19.374001 2.805000 0.007000
20.606001 3.037000 0.688000
23.271999 3.485000 1.535000
19.834000 2.935000 0.342000
21.266001 3.200000 1.043000
23.084000 3.537000 1.914000
19.417000 2.907000 0.008000
20.691999 3.153000 0.692000
23.042000 3.568000 1.521000
20.080999 3.072000 0.348000
21.337000 3.319000 1.048000
22.877001 3.621000 1.899000
19.448000 3.009000 0.009000
20.757000 3.268000 0.695000
22.836000 3.652000 1.510000
20.304001 3.207000 0.353000
21.430000 3.441000 1.054000
22.674999 3.705000 1.885000
19.448999 3.107000 0.009000
20.834000 3.384000 0.699000
22.632999 3.734000 1.499000
20.372000 3.320000 0.355000
21.608999 3.579000 1.065000
22.479000 3.788000 1.871000
19.420000 3.199000 0.010000
20.938000 3.506000 0.705000
22.438999 3.816000 1.488000
20.371000 3.423000 0.357000
21.667000 3.697000 1.070000
22.264999 3.865000 1.856000
19.436001 3.298000 0.011000
21.006001 3.624000 0.708000
22.240000 3.895000 1.477000
20.434999 3.535000 0.359000
21.768999 3.825000 1.077000
22.072001 3.945000 1.843000
19.660999 3.436000 0.012000
21.056999 3.738000 0.712000
22.052000 3.974000 1.467000
20.482000 3.647000 0.360000
21.870001 3.954000 1.084000
21.879000 4.022000 1.830000
19.868000 3.571000 0.013000
21.073999 3.848000 0.714000
21.855000 4.051000 1.456000
20.555000 3.763000 0.364000
21.868999 4.064000 1.086000
21.677999 4.096000 1.815000
19.972000 3.690000 0.014000
21.099001 3.960000 0.716000
21.669001 4.126000 1.446000
20.618999 3.878000 0.366000
21.674999 4.138000 1.078000
21.506001 4.174000 1.804000
20.003000 3.796000 0.015000
21.138000 4.073000 0.719000
21.466999 4.197000 1.435000
20.677000 3.994000 0.368000
21.486000 4.212000 1.071000
21.325001 4.248000 1.791000
20.070999 3.909000 0.015000
21.181000 4.189000 0.722000
21.311001 4.276000 1.427000
20.743000 4.110000 0.370000
21.313999 4.285000 1.064000
21.146000 4.321000 1.779000
20.158001 4.028000 0.017000
21.197001 4.300000 0.724000
21.128000 4.347000 1.417000
20.771999 4.221000 0.372000
21.134001 4.357000 1.056000
20.964001 4.392000 1.767000
20.177999 4.133000 0.018000
21.117001 4.390000 0.723000
20.952999 4.418000 1.408000
20.806999 4.334000 0.373000
20.952999 4.426000 1.049000
20.799999 4.464000 1.755000
20.226999 4.245000 0.018000
20.924000 4.457000 0.718000
20.778000 4.489000 1.398000
20.867001 4.451000 0.376000
20.785999 4.497000 1.043000
20.625000 4.534000 1.743000
20.299000 4.363000 0.019000
20.757999 4.526000 0.714000
20.599001 4.555000 1.388000
20.759001 4.534000 0.375000
20.604000 4.563000 1.035000
20.469000 4.605000 1.733000
20.344999 4.475000 0.020000
20.584999 4.594000 0.709000
20.437000 4.624000 1.380000
20.594000 4.603000 0.373000
20.438000 4.631000 1.029000
20.278999 4.667000 1.719000
20.379000 4.586000 0.020000
20.436001 4.665000 0.706000
20.264000 4.689000 1.370000
20.436001 4.671000 0.371000
20.281000 4.699000 1.023000
20.129999 4.737000 1.709000
20.365000 4.686000 0.021000
20.254999 4.726000 0.701000
20.094999 4.754000 1.361000
20.274000 4.737000 0.369000
20.106001 4.762000 1.016000
19.966999 4.802000 1.698000
20.233000 4.758000 0.021000
20.087999 4.790000 0.696000
19.941000 4.820000 1.353000
20.099001 4.799000 0.366000
19.966999 4.831000 1.010000
19.804001 4.865000 1.687000
20.063000 4.820000 0.021000
19.940001 4.857000 0.692000
19.792000 4.886000 1.345000
19.937000 4.861000 0.364000
19.798000 4.892000 1.004000
19.655001 4.931000 1.676000
19.916000 4.885000 0.021000
19.782000 4.919000 0.688000
19.643000 4.951000 1.336000
19.789000 4.926000 0.363000
19.643999 4.956000 0.997000
19.492001 4.991000 1.665000
19.764999 4.949000 0.022000
19.615999 4.979000 0.683000
19.476000 5.010000 1.327000
19.632999 4.987000 0.361000
19.489000 5.016000 0.991000
19.343000 5.054000 1.655000
19.601999 5.009000 0.021000
19.462999 5.040000 0.679000
19.333000 5.073000 1.319000
19.486000 5.050000 0.358000
19.346001 5.079000 0.985000
19.184999 5.113000 1.643000
19.454000 5.070000 0.021000
19.320000 5.102000 0.675000
19.180000 5.132000 1.310000
19.330999 5.109000 0.356000
19.184999 5.135000 0.979000
19.054001 5.177000 1.634000
19.313000 5.132000 0.022000
19.167000 5.161000 0.670000
19.004999 5.184000 1.301000
19.184000 5.168000 0.354000
19.041000 5.196000 0.972000
19.087000 5.286000 1.640000
19.157000 5.189000 0.021000
19.021999 5.219000 0.666000
19.032000 5.290000 1.304000
19.040001 5.227000 0.351000
18.990000 5.280000 0.971000
19.132999 5.399000 1.645000
19.010000 5.246000 0.021000
18.959999 5.300000 0.665000
19.070000 5.401000 1.308000
18.927000 5.294000 0.350000
19.037001 5.391000 0.975000
19.152000 5.504000 1.649000
18.896000 5.311000 0.021000
18.995001 5.409000 0.667000
19.143999 5.521000 1.314000
18.968000 5.402000 0.351000
19.077000 5.502000 0.977000
19.222000 5.625000 1.658000
18.920000 5.416000 0.020000
19.051001 5.522000 0.669000
19.158001 5.625000 1.318000
19.002001 5.511000 0.351000
19.127001 5.616000 0.981000
19.245001 5.733000 1.662000
18.954000 5.523000 0.020000
19.089001 5.633000 0.672000
19.202999 5.739000 1.321000
19.047001 5.621000 0.352000
19.167999 5.727000 0.984000
19.302999 5.852000 1.668000
19.002001 5.634000 0.020000
19.117001 5.741000 0.672000
19.277000 5.861000 1.328000
19.087999 5.732000 0.353000
19.208000 5.840000 0.987000
19.336000 5.964000 1.673000
19.056000 5.748000 0.019000
19.174000 5.857000 0.675000
19.299000 5.970000 1.331000
19.142000 5.848000 0.353000
19.253000 5.954000 0.990000
19.415001 6.090000 1.682000
19.099001 5.860000 0.018000
19.209000 5.968000 0.677000
19.348000 6.087000 1.335000
19.171000 5.955000 0.353000
19.295000 6.068000 0.993000
23.160000 7.387000 2.008000
19.136000 5.971000 0.018000
19.266001 6.085000 0.679000
22.566000 7.217000 1.559000
19.222000 6.071000 0.355000
22.738001 7.270000 1.170000
22.968000 7.448000 1.994000
19.176001 6.082000 0.017000
23.148001 7.432000 0.815000
22.957001 7.463000 1.588000
19.282000 6.191000 0.354000
22.399000 7.278000 1.153000
22.829000 7.523000 1.983000
19.232000 6.200000 0.015000
22.986000 7.500000 0.810000
22.815001 7.537000 1.578000
22.999001 7.503000 0.422000
22.171000 7.320000 1.142000
22.622000 7.575000 1.966000
23.004999 7.536000 0.017000
22.816999 7.564000 0.803000
22.663000 7.606000 1.568000
22.864000 7.579000 0.419000
22.395000 7.512000 1.153000
22.525999 7.661000 1.959000
22.815001 7.591000 0.015000
22.021000 7.416000 0.774000
22.464001 7.658000 1.556000
22.674999 7.635000 0.414000
22.513000 7.669000 1.159000
22.322001 7.711000 1.943000
22.691000 7.669000 0.013000
21.864000 7.478000 0.768000
22.361000 7.740000 1.549000
22.546000 7.709000 0.410000
22.374001 7.740000 1.153000
22.194000 7.785000 1.933000
22.504000 7.723000 0.011000
21.771999 7.559000 0.764000
22.162001 7.789000 1.535000
22.056999 7.657000 0.400000
22.191000 7.794000 1.142000
22.003000 7.834000 1.917000
22.372000 7.794000 0.009000
22.160999 7.812000 0.776000
22.047001 7.865000 1.528000
21.612000 7.614000 0.391000
22.068001 7.866000 1.135000
21.886999 7.910000 1.908000
22.195999 7.849000 0.005000
21.985001 7.865000 0.769000
21.870001 7.917000 1.516000
21.410000 7.656000 0.384000
21.875999 7.913000 1.125000
21.646000 7.938000 1.887000
22.025000 7.903000 0.003000
21.872000 7.939000 0.764000
21.735001 7.984000 1.505000
21.506001 7.803000 0.385000
21.768999 7.989000 1.119000
21.533001 8.017000 1.878000
21.271000 7.749000 0.000000
21.590000 7.956000 0.752000
21.561001 8.047000 1.493000
21.746000 8.015000 0.387000
21.566000 8.046000 1.107000
21.368000 8.087000 1.864000
21.054001 7.803000 -0.002000
21.403999 8.028000 0.743000
21.407000 8.130000 1.481000
21.558001 8.093000 0.379000
21.377001 8.123000 1.094000
21.169001 8.158000 1.845000
21.118999 7.970000 -0.006000
21.261999 8.121000 0.736000
21.202999 8.199000 1.466000
21.408001 8.183000 0.373000
21.242001 8.216000 1.085000
21.013000 8.243000 1.831000
21.350000 8.203000 -0.012000
21.059000 8.188000 0.725000
20.995001 8.264000 1.450000
21.200001 8.248000 0.366000
21.020000 8.275000 1.072000
20.841999 8.321000 1.816000
21.125999 8.261000 -0.016000
20.860001 8.253000 0.715000
19.202000 7.691000 1.324000
20.997000 8.313000 0.357000
19.235001 7.706000 0.978000
19.080000 7.751000 1.660000
19.327999 7.690000 -0.020000
19.224001 7.738000 0.656000
19.077999 7.773000 1.314000
19.233000 7.747000 0.323000
19.089001 7.778000 0.967000
18.924999 7.819000 1.646000
19.200001 7.770000 -0.025000
19.059000 7.803000 0.645000
18.912001 7.837000 1.299000
19.059999 7.807000 0.315000
18.934999 7.846000 0.957000
19.094000 8.022000 1.659000
19.039000 7.836000 -0.030000
18.917000 7.874000 0.636000
19.138000 8.062000 1.312000
19.103001 7.956000 0.310000
19.181000 8.081000 0.964000
19.165001 8.185000 1.662000
19.247000 8.052000 -0.037000
19.225000 8.135000 0.642000
19.211000 8.226000 1.314000
19.260000 8.154000 0.308000
19.247000 8.240000 0.963000
19.235001 8.348000 1.665000
19.325001 8.218000 -0.045000
19.283001 8.292000 0.638000
19.285999 8.391000 1.316000
19.337999 8.318000 0.303000
19.319000 8.404000 0.963000
19.299000 8.510000 1.669000
19.382000 8.375000 -0.051000
19.353001 8.455000 0.635000
19.341000 8.549000 1.314000
19.403000 8.480000 0.296000
19.384001 8.567000 0.960000
19.365000 8.673000 1.670000
19.454000 8.538000 -0.059000
19.424999 8.620000 0.632000
19.371000 8.697000 1.312000
19.483999 8.649000 0.291000
19.392000 8.703000 0.955000
19.225000 8.744000 1.653000
19.500999 8.693000 -0.069000
19.367001 8.728000 0.622000
19.238001 8.769000 1.298000
19.371000 8.731000 0.282000
19.301001 8.795000 0.945000
19.344999 8.933000 1.659000
19.360001 8.763000 -0.076000
19.358000 8.856000 0.614000
19.350000 8.954000 1.299000
19.511000 8.928000 0.275000
19.355000 8.953000 0.940000
19.184999 8.991000 1.641000
19.419001 8.922000 -0.086000
19.170000 8.902000 0.602000
19.205999 9.020000 1.283000
19.323999 8.975000 0.264000
19.205999 9.016000 0.925000
19.044001 9.057000 1.622000
19.343000 9.020000 -0.096000
19.024000 8.965000 0.588000
19.007999 9.057000 1.263000
19.215000 9.055000 0.253000
19.055000 9.076000 0.911000
18.879000 9.109000 1.602000
19.146000 9.059000 -0.104000
18.900000 9.035000 0.575000
18.886000 9.130000 1.247000
19.035000 9.101000 0.240000
18.914000 9.139000 0.895000
18.767000 9.184000 1.586000
19.032000 9.135000 -0.115000
18.747000 9.090000 0.562000
18.726999 9.181000 1.230000
18.900000 9.166000 0.229000
18.742001 9.183000 0.878000
18.587000 9.224000 1.563000
18.868999 9.185000 -0.126000
18.622999 9.158000 0.548000
18.584000 9.237000 1.212000
18.778999 9.234000 0.217000
18.604000 9.242000 0.863000
18.454000 9.284000 1.545000
18.719999 9.241000 -0.136000
18.466000 9.206000 0.533000
18.479000 9.312000 1.195000
18.589001 9.268000 0.202000
18.487000 9.310000 0.847000
18.349001 9.356000 1.527000
18.599001 9.306000 -0.147000
18.337999 9.266000 0.519000
18.316999 9.355000 1.176000
18.488001 9.343000 0.190000
18.330000 9.355000 0.829000
18.179001 9.394000 1.503000
18.450001 9.357000 -0.160000
18.207001 9.324000 0.503000
18.187000 9.411000 1.158000
18.367001 9.405000 0.177000
18.204000 9.414000 0.813000
18.052000 9.451000 1.484000
18.313000 9.412000 -0.171000
18.069000 9.375000 0.488000
18.059999 9.468000 1.138000
18.177000 9.431000 0.161000
18.098000 9.481000 0.796000
17.931999 9.508000 1.464000
18.198000 9.475000 -0.184000
17.927999 9.422000 0.472000
17.950001 9.531000 1.121000
18.073000 9.498000 0.147000
17.961000 9.529000 0.778000
17.832001 9.576000 1.445000
18.070999 9.530000 -0.198000
17.840000 9.496000 0.456000
17.797001 9.569000 1.100000
17.966999 9.562000 0.133000
17.808001 9.567000 0.760000
17.672001 9.608000 1.421000
17.910000 9.565000 -0.212000
17.718000 9.548000 0.439000
17.662001 9.614000 1.078000
17.849001 9.619000 0.116000
17.688000 9.621000 0.740000
17.541000 9.653000 1.399000
17.782000 9.615000 -0.225000
17.608999 9.606000 0.423000
17.572001 9.681000 1.061000
17.688999 9.649000 0.100000
17.594000 9.685000 0.723000
17.450001 9.718000 1.378000
17.684000 9.680000 -0.241000
17.497999 9.662000 0.405000
17.448000 9.727000 1.040000
17.568001 9.699000 0.085000
17.478001 9.736000 0.704000
17.315001 9.757000 1.355000
17.573000 9.734000 -0.256000
17.375999 9.708000 0.387000
17.347000 9.785000 1.019000
17.455999 9.752000 0.067000
17.364000 9.786000 0.684000
17.221001 9.815000 1.334000
17.464001 9.788000 -0.271000
17.271999 9.762000 0.369000
17.232000 9.831000 0.998000
17.347000 9.803000 0.049000
17.222000 9.817000 0.662000
17.106001 9.860000 1.310000
17.320999 9.821000 -0.288000
17.188999 9.827000 0.350000
17.099001 9.865000 0.975000
17.235001 9.851000 0.033000
17.101999 9.858000 0.643000
17.000000 9.908000 1.288000
17.211000 9.870000 -0.304000
17.090000 9.880000 0.331000
17.000000 9.917000 0.953000
17.124001 9.898000 0.013000
17.003000 9.909000 0.622000
16.896999 9.955000 1.265000
17.080999 9.905000 -0.320000
16.986000 9.927000 0.312000
16.882999 9.955000 0.930000
17.020000 9.946000 -0.004000
16.881001 9.945000 0.599000
16.797001 10.001000 1.240000
16.969000 9.949000 -0.339000
16.898001 9.982000 0.292000
16.771999 9.994000 0.907000
16.923000 9.996000 -0.023000
16.784000 9.993000 0.579000
16.714001 10.055000 1.218000
16.875999 10.000000 -0.357000
16.794001 10.025000 0.270000
16.676001 10.040000 0.883000
16.834000 10.049000 -0.043000
16.697001 10.044000 0.557000
16.612000 10.095000 1.193000
16.768000 10.041000 -0.375000
16.691999 10.068000 0.250000
16.579000 10.083000 0.861000
16.716000 10.082000 -0.064000
16.566000 10.066000 0.532000
16.516001 10.137000 1.167000
16.671000 10.087000 -0.395000
16.591999 10.108000 0.228000
16.497000 10.132000 0.837000
16.601000 10.113000 -0.083000
16.490999 10.120000 0.511000
16.384001 10.153000 1.140000
16.555000 10.117000 -0.414000
16.486000 10.143000 0.205000
16.400999 10.170000 0.811000
16.532000 10.172000 -0.106000
16.410999 10.168000 0.488000
16.299000 10.196000 1.114000
16.455000 10.156000 -0.433000
16.378000 10.174000 0.183000
16.341000 10.229000 0.789000
16.410999 10.195000 -0.127000
16.330999 10.214000 0.463000
16.208000 10.233000 1.087000
16.391001 10.214000 -0.456000
16.285999 10.212000 0.160000
16.219000 10.245000 0.763000
16.309999 10.227000 -0.148000
16.264000 10.266000 0.441000
16.132999 10.277000 1.062000
16.309999 10.260000 -0.478000
16.195000 10.248000 0.136000
16.122999 10.276000 0.735000
16.209000 10.258000 -0.172000
16.152000 10.286000 0.416000
16.035000 10.303000 1.035000
16.221001 10.298000 -0.498000
16.156000 10.316000 0.113000
16.010000 10.293000 0.709000
16.118000 10.292000 -0.195000
16.040001 10.304000 0.389000
15.938000 10.328000 1.005000
16.113001 10.321000 -0.521000
16.049999 10.336000 0.089000
15.938000 10.333000 0.683000
16.031000 10.326000 -0.217000
15.932000 10.322000 0.363000
15.881000 10.376000 0.980000
16.024000 10.354000 -0.544000
15.966000 10.370000 0.063000
15.899000 10.392000 0.657000
15.984000 10.383000 -0.243000
15.826000 10.338000 0.337000
15.789000 10.398000 0.951000
15.930000 10.381000 -0.566000
15.867000 10.391000 0.038000
15.804000 10.413000 0.630000
15.892000 10.409000 -0.267000
15.720000 10.351000 0.309000
15.270000 10.133000 0.896000
15.770000 10.362000 -0.588000
15.638000 10.322000 0.013000
15.232000 10.113000 0.583000
15.312000 10.109000 -0.282000
15.242000 10.114000 0.276000
15.155000 10.133000 0.866000
15.282000 10.121000 -0.595000
15.221000 10.125000 -0.013000
15.163000 10.142000 0.555000
15.237000 10.138000 -0.307000
15.167000 10.139000 0.250000
15.183000 10.223000 0.844000
15.276000 10.196000 -0.621000
15.204000 10.189000 -0.038000
15.242000 10.268000 0.533000
15.335000 10.279000 -0.336000
15.270000 10.282000 0.225000
15.246000 10.337000 0.821000
15.376000 10.341000 -0.654000
15.303000 10.329000 -0.065000
15.301000 10.379000 0.510000
15.364000 10.374000 -0.363000
15.315000 10.384000 0.200000
15.249000 10.408000 0.795000
15.365000 10.408000 -0.682000
15.319000 10.412000 -0.093000
15.258000 10.419000 0.481000
15.328000 10.422000 -0.391000
15.279000 10.428000 0.172000
15.382000 10.565000 0.777000
15.496000 10.570000 -0.716000
15.455000 10.575000 -0.121000
15.397000 10.580000 0.458000
15.475000 10.593000 -0.424000
15.417000 10.590000 0.145000
15.322000 10.588000 0.745000
15.423000 10.592000 -0.743000
15.383000 10.593000 -0.149000
15.325000 10.595000 0.429000
15.392000 10.604000 -0.450000
15.338000 10.601000 0.116000
15.286000 10.625000 0.716000
15.378000 10.630000 -0.771000
15.352000 10.636000 -0.179000
15.293000 10.635000 0.399000
15.347000 10.638000 -0.478000
15.310000 10.643000 0.087000
15.209000 10.630000 0.685000
15.299000 10.641000 -0.797000
15.261000 10.636000 -0.207000
15.218000 10.641000 0.368000
15.273000 10.650000 -0.507000
15.227000 10.645000 0.057000
15.170000 10.658000 0.653000
15.248000 10.669000 -0.825000
15.229000 10.672000 -0.236000
15.182000 10.671000 0.339000
15.210000 10.666000 -0.535000
15.192000 10.677000 0.027000
15.119000 10.675000 0.622000
15.201000 10.696000 -0.855000
15.153000 10.676000 -0.266000
15.097000 10.664000 0.306000
15.183000 10.704000 -0.565000
15.138000 10.692000 -0.002000
15.078000 10.695000 0.591000
15.145000 10.714000 -0.882000
15.148000 10.726000 -0.296000
15.045000 10.677000 0.275000
15.124000 10.717000 -0.595000
15.112000 10.724000 -0.034000
15.059000 10.728000 0.559000
15.104000 10.740000 -0.912000
15.070000 10.721000 -0.326000
14.935000 10.645000 0.244000
15.100000 10.752000 -0.625000
15.040000 10.721000 -0.064000
14.986000 10.719000 0.526000
15.055000 10.757000 -0.943000
15.057000 10.759000 -0.359000
14.891000 10.657000 0.211000
15.054000 10.767000 -0.655000
15.026000 10.754000 -0.095000
14.978000 10.754000 0.496000
15.009000 10.773000 -0.971000
15.004000 10.766000 -0.388000
14.905000 10.707000 0.180000
15.000000 10.773000 -0.686000
14.971000 10.757000 -0.127000
14.944000 10.767000 0.462000
14.932000 10.763000 -0.999000
14.966000 10.780000 -0.419000
14.898000 10.739000 0.149000
14.988000 10.807000 -0.718000
14.938000 10.770000 -0.158000
14.898000 10.767000 0.429000
14.827000 10.730000 -1.027000
14.954000 10.810000 -0.453000
14.901000 10.775000 0.116000
14.921000 10.798000 -0.747000
14.945000 10.810000 -0.190000
14.882000 10.785000 0.398000
14.777000 10.732000 -1.055000
14.899000 10.805000 -0.483000
14.910000 10.813000 0.084000
14.896000 10.815000 -0.780000
14.899000 10.809000 -0.224000
14.874000 10.807000 0.364000
14.776000 10.767000 -1.089000
14.859000 10.807000 -0.514000
14.867000 10.808000 0.052000
14.884000 10.839000 -0.812000
14.852000 10.803000 -0.255000
14.834000 10.802000 0.331000
14.788000 10.809000 -1.124000
14.848000 10.828000 -0.548000
14.824000 10.801000 0.018000
14.850000 10.844000 -0.844000
14.839000 10.818000 -0.288000
14.794000 10.793000 0.298000
14.813000 10.857000 -1.159000
14.838000 10.846000 -0.580000
14.801000 10.805000 -0.014000
14.814000 10.843000 -0.876000
14.833000 10.835000 -0.322000
14.766000 10.789000 0.264000
14.808000 10.880000 -1.193000
14.812000 10.848000 -0.613000
14.815000 10.833000 -0.046000
14.794000 10.851000 -0.908000
14.827000 10.848000 -0.354000
14.697000 10.752000 0.230000
14.794000 10.892000 -1.228000
14.788000 10.849000 -0.647000
14.817000 10.847000 -0.080000
14.793000 10.869000 -0.942000
14.811000 10.852000 -0.387000
14.686000 10.754000 0.198000
14.763000 10.889000 -1.258000
14.777000 10.856000 -0.679000
14.802000 10.847000 -0.113000
14.777000 10.873000 -0.976000
14.779000 10.839000 -0.421000
14.733000 10.795000 0.164000
14.739000 10.887000 -1.290000
14.770000 10.861000 -0.712000
14.813000 10.862000 -0.146000
14.738000 10.856000 -1.006000
14.770000 10.840000 -0.453000
14.781000 10.833000 0.131000
14.731000 10.894000 -1.325000
14.772000 10.871000 -0.747000
14.802000 10.857000 -0.181000
14.661000 10.808000 -1.035000
14.765000 10.841000 -0.486000
14.798000 10.846000 0.099000
14.727000 10.900000 -1.358000
14.772000 10.875000 -0.780000
14.802000 10.857000 -0.214000
14.637000 10.796000 -1.068000
14.765000 10.842000 -0.521000
14.809000 10.849000 0.064000
14.734000 10.910000 -1.393000
14.774000 10.878000 -0.813000
14.809000 10.859000 -0.247000
14.698000 10.843000 -1.105000
14.774000 10.845000 -0.555000
14.804000 10.838000 0.031000
14.734000 10.913000 -1.428000
14.773000 10.874000 -0.848000
14.816000 10.857000 -0.280000
14.766000 10.891000 -1.144000
14.789000 10.851000 -0.588000
14.814000 10.835000 -0.001000
14.735000 10.912000 -1.461000
14.779000 10.872000 -0.882000
14.820000 10.849000 -0.314000
14.792000 10.905000 -1.180000
14.795000 10.845000 -0.622000
14.819000 10.824000 -0.034000
14.737000 10.908000 -1.495000
14.779000 10.863000 -0.914000
14.829000 10.841000 -0.347000
14.801000 10.902000 -1.214000
14.828000 10.856000 -0.657000
14.831000 10.816000 -0.068000
14.741000 10.903000 -1.530000
14.788000 10.857000 -0.949000
14.840000 10.833000 -0.380000
14.799000 10.888000 -1.247000
14.847000 10.853000 -0.690000
14.849000 10.807000 -0.100000
14.756000 10.902000 -1.564000
14.796000 10.846000 -0.982000
14.851000 10.819000 -0.415000
14.811000 10.882000 -1.282000
14.864000 10.845000 -0.724000
14.884000 10.809000 -0.133000
14.766000 10.894000 -1.598000
14.747000 10.790000 -1.011000
14.863000 10.804000 -0.446000
14.824000 10.871000 -1.315000
14.876000 10.831000 -0.757000
14.936000 10.819000 -0.168000
14.796000 10.897000 -1.635000
14.722000 10.749000 -1.042000
14.918000 10.816000 -0.480000
14.836000 10.858000 -1.348000
14.885000 10.810000 -0.789000
14.946000 10.794000 -0.199000
14.832000 10.900000 -1.670000
14.804000 10.782000 -1.080000
14.946000 10.805000 -0.515000
14.865000 10.853000 -1.384000
14.914000 10.801000 -0.824000
14.952000 10.764000 -0.231000
14.855000 10.891000 -1.705000
14.887000 10.812000 -1.117000
14.970000 10.788000 -0.547000
14.918000 10.861000 -1.420000
14.966000 10.805000 -0.858000
15.035000 10.786000 -0.266000
14.865000 10.868000 -1.739000
14.922000 10.803000 -1.152000
14.987000 10.763000 -0.578000
14.932000 10.839000 -1.452000
14.991000 10.786000 -0.890000
15.049000 10.755000 -0.297000
14.880000 10.846000 -1.771000
14.991000 10.816000 -1.188000
15.061000 10.775000 -0.614000
14.948000 10.813000 -1.486000
15.002000 10.754000 -0.923000
15.070000 10.726000 -0.328000
14.900000 10.825000 -1.804000
15.019000 10.796000 -1.220000
15.096000 10.756000 -0.645000
15.009000 10.817000 -1.521000
15.078000 10.765000 -0.958000
15.140000 10.728000 -0.361000
14.887000 10.775000 -1.834000
15.041000 10.769000 -1.254000
15.113000 10.721000 -0.676000
15.050000 10.804000 -1.556000
15.074000 10.716000 -0.987000
15.164000 10.695000 -0.392000
14.922000 10.757000 -1.866000
15.119000 10.777000 -1.289000
15.183000 10.720000 -0.711000
15.073000 10.774000 -1.589000
15.036000 10.639000 -1.015000
15.224000 10.684000 -0.423000
14.968000 10.744000 -1.901000
15.131000 10.735000 -1.319000
15.199000 10.678000 -0.740000
15.147000 10.777000 -1.624000
15.094000 10.627000 -1.048000
15.272000 10.661000 -0.455000
15.029000 10.738000 -1.939000
15.214000 10.741000 -1.356000
15.283000 10.681000 -0.773000
15.182000 10.749000 -1.657000
15.194000 10.642000 -1.082000
15.338000 10.647000 -0.485000
16.683001 11.862000 -2.182000
15.238000 10.702000 -1.387000
15.311000 10.640000 -0.804000
15.248000 10.740000 -1.693000
15.323000 10.673000 -1.121000
15.387000 10.619000 -0.515000
16.525999 11.689000 -2.191000
15.299000 10.686000 -1.419000
15.395000 10.636000 -0.836000
15.281000 10.704000 -1.723000
15.360000 10.637000 -1.151000
15.463000 10.607000 -0.548000
14.610000 10.277000 -1.964000
15.348000 10.657000 -1.452000
15.431000 10.596000 -0.865000
15.308000 10.661000 -1.753000
15.441000 10.628000 -1.183000
15.468000 10.542000 -0.574000
14.582000 10.198000 -1.985000
14.583000 10.064000 -1.404000
15.516000 10.587000 -0.898000
14.916000 10.325000 -1.734000
15.511000 10.608000 -1.216000
15.371000 10.407000 -0.598000
14.564000 10.124000 -2.007000
14.542000 9.972000 -1.424000
15.374000 10.419000 -0.915000
14.552000 10.009000 -1.715000
15.515000 10.541000 -1.242000
15.363000 10.329000 -0.624000
14.533000 10.037000 -2.027000
14.499000 9.876000 -1.445000
15.417000 10.376000 -0.943000
14.510000 9.914000 -1.734000
15.421000 10.404000 -1.259000
15.244000 10.175000 -0.644000
14.506000 9.952000 -2.045000
14.461000 9.782000 -1.464000
15.352000 10.258000 -0.965000
14.479000 9.824000 -1.754000
15.227000 10.200000 -1.267000
15.293000 10.132000 -0.671000
14.467000 9.856000 -2.062000
14.417000 9.682000 -1.481000
15.295000 10.143000 -0.985000
14.418000 9.713000 -1.768000
14.937000 9.932000 -1.267000
15.727000 10.339000 -0.716000
14.688000 9.935000 -2.116000
14.388000 9.591000 -1.499000
15.385000 10.125000 -1.014000
14.384000 9.617000 -1.784000
14.666000 9.676000 -1.265000
15.932000 10.390000 -0.748000
14.647000 9.833000 -2.131000
14.365000 9.501000 -1.519000
15.953000 10.415000 -1.076000
14.351000 9.521000 -1.801000
14.494000 9.487000 -1.271000
16.035999 10.373000 -0.777000
15.025000 10.008000 -2.205000
14.354000 9.418000 -1.536000
16.049999 10.392000 -1.105000
14.324000 9.428000 -1.817000
14.501000 9.413000 -1.293000
16.125999 10.342000 -0.806000
15.204000 10.046000 -2.253000
14.404000 9.373000 -1.561000
16.118000 10.347000 -1.132000
14.319000 9.346000 -1.835000
14.549000 9.364000 -1.316000
16.245001 10.328000 -0.833000
14.583000 9.556000 -2.179000
14.482000 9.343000 -1.590000
16.197001 10.307000 -1.160000
14.407000 9.323000 -1.865000
14.625000 9.331000 -1.342000
16.252001 10.240000 -0.856000
14.705000 9.553000 -2.214000
14.568000 9.316000 -1.617000
16.298000 10.278000 -1.188000
14.439000 9.263000 -1.887000
14.678000 9.281000 -1.366000
16.283001 10.165000 -0.879000
15.164000 9.764000 -2.302000
14.700000 9.316000 -1.649000
16.396000 10.245000 -1.215000
14.570000 9.262000 -1.920000
14.779000 9.259000 -1.392000
16.337000 10.102000 -0.902000
14.808000 9.449000 -2.264000
14.806000 9.296000 -1.679000
15.245000 9.435000 -1.149000
14.658000 9.232000 -1.949000
14.836000 9.207000 -1.415000
16.459000 10.080000 -0.929000
14.735000 9.315000 -2.268000
14.806000 9.208000 -1.694000
15.238000 9.339000 -1.165000
14.750000 9.201000 -1.976000
14.921000 9.169000 -1.441000
16.629000 10.083000 -0.959000
14.781000 9.254000 -2.291000
14.874000 9.160000 -1.718000
15.237000 9.247000 -1.182000
14.841000 9.168000 -2.003000
15.021000 9.139000 -1.465000
16.790001 10.077000 -0.986000
14.878000 9.224000 -2.321000
14.962000 9.122000 -1.744000
15.289000 9.184000 -1.204000
14.942000 9.138000 -2.032000
15.141000 9.119000 -1.493000
16.909000 10.044000 -1.011000
14.835000 9.104000 -2.326000
15.062000 9.089000 -1.769000
15.317000 9.105000 -1.221000
15.719000 9.515000 -2.152000
15.231000 9.077000 -1.517000
16.996000 9.989000 -1.035000
14.796000 8.986000 -2.334000
15.167000 9.057000 -1.796000
15.392000 9.053000 -1.242000
15.818000 9.474000 -2.178000
15.346000 9.048000 -1.542000
17.110001 9.947000 -1.058000
14.732000 8.854000 -2.336000
15.271000 9.022000 -1.823000
17.141001 9.971000 -1.400000
15.767000 9.342000 -2.186000
15.412000 8.989000 -1.562000
17.209000 9.895000 -1.081000
14.697000 8.737000 -2.341000
15.383000 8.988000 -1.848000
17.225000 9.909000 -1.421000
15.586000 9.134000 -2.173000
17.122000 9.876000 -1.751000
17.327000 9.850000 -1.105000
14.655000 8.616000 -2.346000
15.491000 8.951000 -1.873000
17.341000 9.864000 -1.446000
15.550000 9.011000 -2.178000
17.223000 9.821000 -1.774000
17.443001 9.802000 -1.126000
14.624000 8.501000 -2.351000
17.353001 9.913000 -2.112000
17.444000 9.808000 -1.469000
15.597000 8.935000 -2.197000
19.030001 10.727000 -1.975000
17.559999 9.753000 -1.149000
14.574000 8.374000 -2.351000
17.291000 9.762000 -2.116000
17.562000 9.758000 -1.492000
15.834000 8.965000 -2.240000
18.943001 10.552000 -1.981000
17.697001 9.712000 -1.173000
14.552000 8.263000 -2.357000
17.249001 9.623000 -2.122000
17.702999 9.719000 -1.517000
15.783000 8.830000 -2.242000
19.000000 10.456000 -1.999000
17.826000 9.664000 -1.193000
14.512000 8.143000 -2.358000
17.197001 9.479000 -2.128000
17.820999 9.664000 -1.540000
15.763000 8.712000 -2.248000
18.992001 10.325000 -2.010000
17.958000 9.616000 -1.215000
14.488000 8.030000 -2.361000
17.160000 9.342000 -2.132000
17.931999 9.603000 -1.561000
15.714000 8.578000 -2.250000
18.882000 10.137000 -2.011000
18.070000 9.554000 -1.236000
14.456000 7.913000 -2.362000
17.121000 9.204000 -2.136000
17.997999 9.517000 -1.577000
15.689000 8.457000 -2.253000
18.768999 9.948000 -2.008000
18.181999 9.490000 -1.254000
14.421000 7.794000 -2.364000
17.087000 9.068000 -2.142000
18.128000 9.462000 -1.600000
15.655000 8.330000 -2.256000
18.693001 9.781000 -2.010000
18.365999 9.461000 -1.278000
14.376000 7.669000 -2.361000
17.049000 8.930000 -2.144000
18.275999 9.415000 -1.623000
15.630000 8.209000 -2.259000
18.665001 9.638000 -2.017000
18.490000 9.399000 -1.298000
14.367000 7.564000 -2.365000
17.013000 8.794000 -2.147000
18.407000 9.357000 -1.644000
15.606000 8.087000 -2.261000
18.662001 9.507000 -2.024000
18.610001 9.333000 -1.316000
14.352000 7.455000 -2.367000
16.976000 8.657000 -2.150000
18.632000 9.343000 -1.673000
15.577000 7.964000 -2.262000
18.589001 9.342000 -2.024000
18.790001 9.294000 -1.338000
14.327000 7.341000 -2.367000
16.941000 8.521000 -2.151000
20.540001 10.158000 -1.854000
15.556000 7.843000 -2.265000
18.546000 9.192000 -2.028000
18.920000 9.228000 -1.357000
14.326000 7.239000 -2.370000
16.916000 8.391000 -2.153000
20.475000 9.984000 -1.856000
15.514000 7.713000 -2.262000
18.518000 9.048000 -2.030000
19.038000 9.155000 -1.373000
14.330000 7.139000 -2.374000
16.913000 8.270000 -2.159000
20.466999 9.838000 -1.864000
15.511000 7.602000 -2.266000
18.478001 8.901000 -2.032000
19.230000 9.114000 -1.394000
14.295000 7.019000 -2.371000
16.886000 8.138000 -2.159000
20.452000 9.689000 -1.869000
15.479000 7.477000 -2.265000
18.443001 8.754000 -2.035000
19.351000 9.037000 -1.411000
14.308000 6.924000 -2.375000
16.872999 8.014000 -2.161000
20.346001 9.497000 -1.865000
15.466000 7.360000 -2.265000
18.430000 8.619000 -2.037000
19.473000 8.959000 -1.427000
14.302000 6.818000 -2.376000
16.865999 7.891000 -2.165000
20.253000 9.311000 -1.864000
15.452000 7.244000 -2.266000
18.437000 8.493000 -2.042000
19.563999 8.865000 -1.439000
14.268000 6.700000 -2.371000
16.848000 7.763000 -2.165000
19.455999 8.810000 -1.796000
15.434000 7.126000 -2.266000
18.384001 8.339000 -2.041000
19.572001 8.732000 -1.446000
14.278000 6.602000 -2.374000
16.812000 7.628000 -2.163000
19.597000 8.737000 -1.812000
15.424000 7.011000 -2.265000
18.370001 8.204000 -2.043000
19.604000 8.611000 -1.454000
14.287000 6.503000 -2.377000
16.823000 7.513000 -2.167000
19.447001 8.533000 -1.804000
15.390000 6.886000 -2.261000
18.382000 8.080000 -2.047000
19.533001 8.444000 -1.453000
14.289000 6.401000 -2.377000
16.802999 7.385000 -2.166000
19.326000 8.346000 -1.796000
15.371000 6.768000 -2.260000
18.347000 7.935000 -2.046000
19.457001 8.275000 -1.453000
14.280000 6.295000 -2.375000
16.805000 7.268000 -2.168000
19.466999 8.270000 -1.812000
15.375000 6.660000 -2.261000
18.346001 7.805000 -2.048000
19.391001 8.112000 -1.451000
14.290000 6.196000 -2.377000
16.790001 7.142000 -2.168000
19.285999 8.058000 -1.799000
15.375000 6.550000 -2.261000
18.355000 7.680000 -2.050000
19.121000 7.866000 -1.434000
14.280000 6.088000 -2.374000
16.808001 7.030000 -2.170000
19.163000 7.873000 -1.789000
15.401000 6.451000 -2.265000
18.360001 7.553000 -2.053000
17.264999 6.982000 -1.298000
14.292000 5.991000 -2.375000
16.715000 6.873000 -2.158000
17.283001 6.979000 -1.615000
15.421000 6.349000 -2.267000
17.295000 6.993000 -1.934000
17.207001 6.839000 -1.296000
14.299000 5.891000 -2.376000
16.673000 6.737000 -2.154000
17.214001 6.831000 -1.610000
15.433000 6.245000 -2.268000
17.229000 6.845000 -1.927000
17.143999 6.695000 -1.293000
14.310000 5.792000 -2.376000
16.653999 6.611000 -2.150000
17.153999 6.687000 -1.606000
15.420000 6.129000 -2.266000
17.167999 6.700000 -1.922000
17.086000 6.554000 -1.290000
14.321000 5.694000 -2.375000
16.565001 6.459000 -2.138000
17.096001 6.545000 -1.601000
15.430000 6.023000 -2.266000
17.106001 6.555000 -1.914000
17.024000 6.412000 -1.287000
14.338000 5.597000 -2.377000
16.541000 6.332000 -2.135000
17.038000 6.404000 -1.596000
15.458000 5.924000 -2.268000
17.047001 6.414000 -1.907000
16.954000 6.267000 -1.283000
14.341000 5.495000 -2.375000
16.577999 6.229000 -2.138000
16.976999 6.263000 -1.591000
15.448000 5.810000 -2.266000
16.992001 6.273000 -1.901000
16.955999 6.151000 -1.283000
14.349000 5.395000 -2.374000
16.549000 6.102000 -2.133000
16.969999 6.142000 -1.590000
15.464000 5.705000 -2.266000
16.974001 6.147000 -1.898000
17.079000 6.081000 -1.293000
14.364000 5.302000 -2.374000
16.534000 5.984000 -2.130000
17.097000 6.078000 -1.602000
15.479000 5.610000 -2.266000
17.063999 6.070000 -1.907000
17.228001 6.024000 -1.306000
14.371000 5.209000 -2.373000
16.577000 5.892000 -2.134000
17.246000 6.020000 -1.616000
15.483000 5.509000 -2.265000
17.046000 5.953000 -1.905000
17.385000 5.968000 -1.317000
14.390000 5.121000 -2.373000
16.635000 5.804000 -2.140000
17.386000 5.957000 -1.628000
15.504000 5.415000 -2.265000
17.076000 5.854000 -1.907000
17.534000 5.908000 -1.329000
14.403000 5.030000 -2.372000
16.656000 5.702000 -2.140000
17.461000 5.871000 -1.635000
15.496000 5.311000 -2.262000
17.115000 5.757000 -1.909000
17.677000 5.843000 -1.340000
14.410000 4.938000 -2.370000
16.672001 5.600000 -2.140000
17.502001 5.773000 -1.638000
15.518000 5.217000 -2.263000
17.164000 5.662000 -1.914000
17.841999 5.784000 -1.351000
14.414000 4.844000 -2.368000
16.648001 5.484000 -2.136000
17.540001 5.673000 -1.640000
15.547000 5.125000 -2.264000
17.212000 5.568000 -1.917000
17.962000 5.709000 -1.360000
14.416000 4.750000 -2.365000
16.670000 5.383000 -2.136000
17.577999 5.573000 -1.642000
15.556000 5.027000 -2.262000
17.260000 5.472000 -1.920000
18.030001 5.616000 -1.365000
14.462000 4.670000 -2.370000
16.608999 5.257000 -2.126000
17.690001 5.496000 -1.652000
15.575000 4.932000 -2.263000
17.309000 5.376000 -1.925000
18.083000 5.519000 -1.368000
14.428000 4.565000 -2.361000
16.673000 5.169000 -2.132000
17.721001 5.392000 -1.653000
15.579000 4.832000 -2.260000
17.290001 5.260000 -1.920000
18.164000 5.428000 -1.373000
14.463000 4.480000 -2.363000
16.731001 5.079000 -2.136000
17.754000 5.290000 -1.655000
15.603000 4.738000 -2.261000
17.263000 5.142000 -1.915000
18.198999 5.323000 -1.375000
14.479000 4.391000 -2.362000
16.722000 4.969000 -2.132000
17.740999 5.173000 -1.652000
15.621000 4.642000 -2.261000
17.278000 5.036000 -1.914000
18.195999 5.208000 -1.374000
14.497000 4.302000 -2.363000
16.636000 4.836000 -2.119000
17.695000 5.047000 -1.646000
15.618000 4.540000 -2.256000
17.250999 4.918000 -1.909000
18.157000 5.083000 -1.369000
14.518000 4.213000 -2.362000
16.530001 4.699000 -2.102000
17.639000 4.920000 -1.638000
15.656000 4.451000 -2.259000
17.228001 4.801000 -1.904000
18.051001 4.939000 -1.360000
14.522000 4.120000 -2.359000
16.421000 4.563000 -2.085000
17.600000 4.798000 -1.633000
15.665000 4.352000 -2.257000
17.110001 4.660000 -1.888000
17.983999 4.809000 -1.354000
14.543000 4.031000 -2.359000
16.393000 4.450000 -2.080000
17.544001 4.672000 -1.626000
15.676000 4.254000 -2.256000
16.983000 4.518000 -1.873000
17.900000 4.674000 -1.345000
14.551000 3.939000 -2.356000
16.348000 4.333000 -2.070000
17.447001 4.536000 -1.615000
15.668000 4.151000 -2.251000
16.907000 4.390000 -1.861000
17.868000 4.554000 -1.341000
14.563000 3.848000 -2.355000
16.254999 4.206000 -2.056000
17.371000 4.407000 -1.606000
15.693000 4.057000 -2.252000
16.777000 4.250000 -1.844000
17.788000 4.422000 -1.334000
14.584000 3.759000 -2.355000
16.261000 4.103000 -2.054000
17.270000 4.272000 -1.594000
15.670000 3.951000 -2.245000
16.671000 4.118000 -1.831000
17.650000 4.277000 -1.322000
14.596000 3.668000 -2.353000
16.212000 3.988000 -2.045000
17.143000 4.134000 -1.581000
15.619000 3.838000 -2.234000
16.634001 4.003000 -1.823000
17.606001 4.157000 -1.317000
14.600000 3.575000 -2.350000
16.118000 3.863000 -2.030000
17.207001 4.041000 -1.585000
15.635000 3.741000 -2.233000
16.785999 3.935000 -1.838000
17.604000 4.047000 -1.316000
14.609000 3.483000 -2.349000
16.257000 3.792000 -2.045000
17.235001 3.940000 -1.585000
15.663000 3.648000 -2.234000
16.827000 3.838000 -1.840000
17.584000 3.933000 -1.312000
14.630000 3.393000 -2.348000
16.410999 3.725000 -2.061000
17.264999 3.839000 -1.586000
15.730000 3.564000 -2.240000
16.843000 3.736000 -1.839000
17.586000 3.825000 -1.310000
14.645000 3.303000 -2.347000
16.344999 3.607000 -2.050000
17.245001 3.727000 -1.582000
15.670000 3.451000 -2.228000
16.812000 3.624000 -1.833000
17.594999 3.717000 -1.310000
14.665000 3.213000 -2.347000
16.351000 3.504000 -2.048000
17.254999 3.621000 -1.580000
15.713000 3.360000 -2.232000
16.820999 3.520000 -1.832000
17.665001 3.622000 -1.313000
14.667000 3.120000 -2.344000
16.441999 3.420000 -2.057000
17.316000 3.527000 -1.584000
15.765000 3.271000 -2.235000
16.875999 3.425000 -1.835000
17.712000 3.523000 -1.315000
14.695000 3.032000 -2.345000
16.546000 3.338000 -2.066000
17.329000 3.421000 -1.583000
15.825000 3.184000 -2.241000
17.007999 3.347000 -1.847000
17.732000 3.417000 -1.315000
14.704000 2.940000 -2.344000
16.624001 3.249000 -2.074000
17.381001 3.323000 -1.586000
15.789000 3.076000 -2.233000
17.056999 3.249000 -1.850000
17.712000 3.304000 -1.311000
14.708000 2.847000 -2.340000
16.679001 3.155000 -2.078000
17.375000 3.215000 -1.583000
15.746000 2.968000 -2.224000
17.090000 3.149000 -1.851000
17.771999 3.206000 -1.314000
14.735000 2.758000 -2.342000
16.721001 3.058000 -2.080000
17.392000 3.110000 -1.583000
15.767000 2.873000 -2.224000
17.061001 3.038000 -1.846000
17.782000 3.098000 -1.314000
14.738000 2.665000 -2.340000
16.670000 2.945000 -2.071000
17.434999 3.010000 -1.585000
15.846000 2.787000 -2.233000
17.065001 2.932000 -1.844000
17.788000 2.989000 -1.312000
14.760000 2.575000 -2.340000
16.596001 2.827000 -2.060000
17.437000 2.903000 -1.583000
15.917000 2.699000 -2.240000
17.033001 2.820000 -1.838000
17.813999 2.885000 -1.313000
14.765000 2.483000 -2.338000
16.552999 2.716000 -2.052000
17.448000 2.796000 -1.583000
15.848000 2.588000 -2.227000
17.017000 2.712000 -1.835000
17.832001 2.778000 -1.313000
14.778000 2.391000 -2.337000
16.525000 2.609000 -2.046000
17.424999 2.686000 -1.579000
15.863000 2.491000 -2.227000
16.995001 2.603000 -1.831000
17.830000 2.668000 -1.311000
14.778000 2.297000 -2.334000
16.514000 2.504000 -2.043000
17.429001 2.579000 -1.577000
15.848000 2.388000 -2.222000
16.978001 2.495000 -1.826000
17.851000 2.563000 -1.311000
14.805000 2.208000 -2.336000
16.483000 2.396000 -2.037000
17.415001 2.470000 -1.574000
15.929000 2.301000 -2.232000
16.975000 2.390000 -1.824000
17.850000 2.453000 -1.310000
14.800000 2.114000 -2.333000
16.511000 2.298000 -2.038000
