# This PCD file was generated using the MATLAB® pcwrite function
# from Computer Vision Toolbox®.
# .PCD v.7 - Point Cloud Data file format
VERSION .7
FIELDS x y z
SIZE 4 4 4
TYPE F F F
COUNT 1 1 1
WIDTH 1597
HEIGHT 1
VIEWPOINT 0 0 0 1 0 0 0
POINTS 1597
DATA ascii
18.295000 1.563000 -1.000000
19.014000 1.595000 -0.419000
19.722000 1.619000 0.196000
18.691999 1.540000 -0.709000
19.302000 1.559000 -0.127000
20.570999 1.627000 0.545000
18.245001 1.467000 -0.997000
19.004000 1.500000 -0.418000
19.726000 1.522000 0.196000
18.677000 1.445000 -0.708000
19.291000 1.463000 -0.127000
20.573999 1.527000 0.545000
18.253000 1.376000 -0.997000
19.013000 1.405000 -0.418000
19.849001 1.433000 0.197000
18.690001 1.353000 -0.708000
19.302999 1.368000 -0.128000
20.558001 1.424000 0.544000
18.278000 1.286000 -0.998000
19.040001 1.313000 -0.419000
19.945000 1.342000 0.198000
18.687000 1.259000 -0.708000
19.282000 1.270000 -0.127000
20.586000 1.325000 0.544000
18.290001 1.196000 -0.999000
19.048000 1.219000 -0.419000
19.882000 1.239000 0.197000
18.662001 1.164000 -0.707000
19.298000 1.176000 -0.128000
20.594000 1.224000 0.544000
18.285000 1.103000 -0.998000
19.027000 1.122000 -0.419000
19.711000 1.131000 0.195000
18.670000 1.072000 -0.707000
19.299999 1.081000 -0.128000
20.587999 1.122000 0.544000
18.288000 1.013000 -0.998000
19.035999 1.029000 -0.419000
19.582001 1.027000 0.193000
18.672001 0.979000 -0.707000
19.309000 0.985000 -0.128000
20.587000 1.021000 0.543000
18.282000 0.920000 -0.998000
19.013000 0.933000 -0.419000
19.556000 0.929000 0.192000
18.650999 0.885000 -0.706000
19.327000 0.891000 -0.129000
20.584000 0.919000 0.542000
18.278000 0.828000 -0.998000
19.021000 0.840000 -0.419000
19.528000 0.831000 0.192000
18.660999 0.793000 -0.707000
19.318001 0.795000 -0.129000
20.582001 0.818000 0.542000
18.257000 0.737000 -0.997000
18.981001 0.743000 -0.419000
19.516001 0.735000 0.191000
18.653000 0.699000 -0.707000
19.290001 0.698000 -0.129000
20.587999 0.718000 0.541000
18.270000 0.645000 -0.998000
18.997999 0.649000 -0.420000
19.507999 0.638000 0.190000
18.641001 0.605000 -0.707000
19.253000 0.602000 -0.130000
20.589001 0.616000 0.540000
18.278999 0.554000 -0.999000
18.969000 0.555000 -0.420000
19.474001 0.541000 0.189000
18.597000 0.512000 -0.706000
19.280001 0.507000 -0.131000
20.582001 0.514000 0.539000
18.263000 0.462000 -0.999000
18.941999 0.459000 -0.420000
19.483999 0.445000 0.189000
18.559999 0.418000 -0.705000
19.236000 0.410000 -0.131000
20.584000 0.414000 0.539000
18.254000 0.370000 -0.999000
18.900000 0.364000 -0.419000
19.499001 0.350000 0.188000
18.608000 0.326000 -0.708000
19.219999 0.315000 -0.132000
20.587000 0.312000 0.538000
18.250000 0.278000 -0.999000
18.905001 0.271000 -0.420000
19.480000 0.253000 0.187000
18.599001 0.233000 -0.708000
19.184999 0.219000 -0.132000
20.591999 0.210000 0.537000
18.179001 0.187000 -0.996000
18.882999 0.176000 -0.421000
19.493999 0.157000 0.186000
18.540001 0.141000 -0.707000
19.173000 0.124000 -0.133000
20.563000 0.110000 0.535000
18.156000 0.095000 -0.996000
18.874001 0.082000 -0.421000
19.487000 0.061000 0.185000
18.499001 0.048000 -0.706000
19.145000 0.030000 -0.134000
20.570000 0.008000 0.534000
18.143000 0.004000 -0.996000
18.854000 -0.010000 -0.422000
19.509001 -0.034000 0.184000
18.473000 -0.044000 -0.706000
19.163000 -0.064000 -0.135000
20.583000 -0.093000 0.534000
18.125000 -0.085000 -0.996000
18.823999 -0.104000 -0.422000
19.490000 -0.131000 0.183000
18.445999 -0.135000 -0.706000
19.142000 -0.160000 -0.136000
20.559999 -0.193000 0.532000
18.113001 -0.177000 -0.997000
18.763000 -0.197000 -0.422000
19.476000 -0.226000 0.182000
18.431000 -0.228000 -0.707000
19.103001 -0.253000 -0.137000
20.545000 -0.294000 0.530000
18.090000 -0.267000 -0.996000
18.733999 -0.289000 -0.422000
19.490999 -0.323000 0.181000
18.384001 -0.319000 -0.706000
19.030001 -0.346000 -0.137000
20.493999 -0.395000 0.528000
18.097000 -0.358000 -0.998000
18.693001 -0.382000 -0.423000
19.481001 -0.420000 0.179000
18.416000 -0.411000 -0.709000
19.007999 -0.441000 -0.139000
20.483999 -0.495000 0.526000
18.073999 -0.448000 -0.998000
18.700001 -0.476000 -0.424000
19.417999 -0.514000 0.177000
18.431999 -0.504000 -0.711000
18.936001 -0.533000 -0.140000
20.488001 -0.596000 0.525000
18.087999 -0.540000 -1.001000
18.679001 -0.568000 -0.425000
19.365000 -0.609000 0.175000
18.407000 -0.596000 -0.712000
18.940001 -0.627000 -0.141000
20.496000 -0.699000 0.523000
18.101999 -0.631000 -1.003000
18.688000 -0.662000 -0.427000
19.322001 -0.703000 0.174000
18.393000 -0.687000 -0.713000
18.913000 -0.721000 -0.142000
20.490999 -0.799000 0.522000
18.103001 -0.722000 -1.005000
18.684000 -0.755000 -0.429000
19.275999 -0.797000 0.172000
18.396000 -0.780000 -0.715000
18.891001 -0.814000 -0.144000
20.492001 -0.900000 0.520000
18.063999 -0.813000 -1.005000
18.705000 -0.849000 -0.431000
19.233000 -0.891000 0.170000
18.424000 -0.874000 -0.718000
18.891001 -0.907000 -0.146000
20.493999 -1.002000 0.519000
18.090000 -0.904000 -1.008000
18.688999 -0.941000 -0.432000
19.166000 -0.983000 0.167000
18.431000 -0.966000 -0.720000
18.892000 -1.002000 -0.147000
20.486000 -1.104000 0.517000
18.100000 -0.996000 -1.011000
18.674999 -1.035000 -0.434000
19.096001 -1.074000 0.165000
18.431999 -1.059000 -0.722000
18.896000 -1.097000 -0.149000
20.535000 -1.207000 0.516000
18.063999 -1.086000 -1.011000
18.673000 -1.128000 -0.436000
19.098000 -1.170000 0.163000
18.427000 -1.152000 -0.724000
18.889000 -1.190000 -0.151000
20.527000 -1.309000 0.514000
18.094999 -1.179000 -1.015000
18.656000 -1.221000 -0.437000
19.106001 -1.266000 0.161000
18.450001 -1.246000 -0.727000
18.875000 -1.284000 -0.153000
20.506001 -1.410000 0.512000
18.132999 -1.273000 -1.019000
18.656000 -1.315000 -0.440000
19.080000 -1.358000 0.159000
18.458000 -1.340000 -0.729000
18.834999 -1.376000 -0.155000
20.483000 -1.510000 0.509000
18.113001 -1.365000 -1.020000
18.655001 -1.408000 -0.442000
19.062000 -1.452000 0.157000
18.480000 -1.435000 -0.733000
18.809999 -1.468000 -0.157000
20.483999 -1.612000 0.507000
18.117001 -1.456000 -1.023000
18.625000 -1.499000 -0.443000
19.045000 -1.547000 0.155000
18.510000 -1.530000 -0.736000
18.791000 -1.561000 -0.159000
20.492001 -1.715000 0.505000
18.115999 -1.548000 -1.026000
18.604000 -1.592000 -0.445000
19.072001 -1.644000 0.153000
18.517000 -1.625000 -0.739000
18.778999 -1.655000 -0.161000
20.476999 -1.816000 0.503000
18.162001 -1.645000 -1.031000
18.618999 -1.687000 -0.448000
19.061001 -1.738000 0.151000
18.521999 -1.720000 -0.742000
18.757999 -1.747000 -0.163000
20.403999 -1.912000 0.499000
18.160999 -1.737000 -1.034000
18.613001 -1.780000 -0.450000
19.069000 -1.835000 0.149000
18.533001 -1.814000 -0.745000
18.785999 -1.845000 -0.166000
20.208000 -1.995000 0.492000
18.193001 -1.833000 -1.039000
18.615000 -1.875000 -0.453000
19.079000 -1.932000 0.147000
18.514000 -1.906000 -0.747000
18.825001 -1.943000 -0.168000
20.090000 -2.083000 0.487000
18.177000 -1.925000 -1.041000
18.643999 -1.972000 -0.456000
19.076000 -2.027000 0.144000
18.514000 -2.002000 -0.750000
18.829000 -2.038000 -0.171000
19.965000 -2.171000 0.482000
18.155001 -2.016000 -1.043000
18.669001 -2.069000 -0.460000
19.075001 -2.124000 0.142000
18.531000 -2.097000 -0.754000
18.841999 -2.135000 -0.174000
19.857000 -2.259000 0.477000
18.171000 -2.110000 -1.047000
18.631001 -2.160000 -0.462000
19.091999 -2.222000 0.139000
18.476999 -2.185000 -0.755000
18.804001 -2.227000 -0.176000
19.840000 -2.357000 0.474000
18.202999 -2.208000 -1.052000
18.608000 -2.252000 -0.464000
19.124001 -2.322000 0.137000
18.479000 -2.281000 -0.758000
18.761999 -2.317000 -0.178000
20.211000 -2.503000 0.480000
18.264000 -2.309000 -1.059000
18.605000 -2.346000 -0.467000
19.112000 -2.418000 0.134000
18.454000 -2.372000 -0.760000
18.771000 -2.413000 -0.181000
20.198999 -2.604000 0.477000
18.268999 -2.404000 -1.063000
18.618999 -2.444000 -0.470000
19.110001 -2.514000 0.132000
18.479000 -2.470000 -0.764000
18.709000 -2.501000 -0.184000
20.292999 -2.718000 0.477000
18.275000 -2.499000 -1.066000
18.614000 -2.539000 -0.473000
19.143000 -2.616000 0.129000
18.466999 -2.565000 -0.767000
18.719999 -2.598000 -0.187000
20.069000 -2.790000 0.469000
18.309999 -2.599000 -1.072000
18.635000 -2.636000 -0.477000
19.187000 -2.720000 0.127000
18.502001 -2.664000 -0.772000
18.731001 -2.695000 -0.190000
19.938000 -2.874000 0.463000
18.316000 -2.694000 -1.076000
18.650999 -2.735000 -0.480000
19.184000 -2.818000 0.124000
18.507000 -2.760000 -0.776000
18.757999 -2.796000 -0.193000
19.796000 -2.954000 0.458000
18.325001 -2.790000 -1.081000
18.652000 -2.831000 -0.484000
19.214001 -2.920000 0.121000
18.503000 -2.856000 -0.779000
18.789000 -2.897000 -0.197000
19.642000 -3.030000 0.451000
18.330999 -2.888000 -1.085000
18.653000 -2.927000 -0.487000
19.238001 -3.022000 0.119000
18.525000 -2.955000 -0.784000
18.823999 -2.998000 -0.200000
19.599001 -3.125000 0.448000
18.330999 -2.983000 -1.089000
18.688999 -3.029000 -0.492000
19.261000 -3.125000 0.116000
18.518000 -3.050000 -0.787000
18.893000 -3.108000 -0.204000
19.635000 -3.231000 0.446000
18.294001 -3.072000 -1.091000
18.729000 -3.134000 -0.496000
19.254999 -3.223000 0.113000
18.535999 -3.150000 -0.792000
18.938000 -3.213000 -0.208000
19.698999 -3.342000 0.444000
18.261000 -3.164000 -1.093000
18.716999 -3.229000 -0.500000
19.289000 -3.327000 0.110000
18.570000 -3.253000 -0.797000
18.973000 -3.316000 -0.212000
19.945000 -3.488000 0.447000
18.273001 -3.261000 -1.098000
18.820000 -3.344000 -0.506000
19.309999 -3.432000 0.107000
18.604000 -3.356000 -0.803000
19.030001 -3.427000 -0.216000
20.205999 -3.637000 0.450000
18.240000 -3.351000 -1.100000
18.851999 -3.449000 -0.511000
19.372000 -3.543000 0.104000
18.584999 -3.449000 -0.806000
19.045000 -3.528000 -0.219000
22.326000 -4.134000 0.494000
18.237000 -3.448000 -1.105000
18.892000 -3.555000 -0.516000
19.480000 -3.663000 0.101000
18.582001 -3.548000 -0.810000
19.108000 -3.639000 -0.224000
22.271999 -4.241000 0.489000
18.228001 -3.542000 -1.109000
18.885000 -3.652000 -0.519000
19.797001 -3.827000 0.100000
18.601000 -3.649000 -0.815000
19.184999 -3.755000 -0.228000
22.230000 -4.348000 0.485000
18.238001 -3.640000 -1.114000
18.893999 -3.754000 -0.524000
20.334999 -4.037000 0.099000
18.648001 -3.756000 -0.821000
19.284000 -3.875000 -0.233000
22.191000 -4.455000 0.481000
18.245001 -3.740000 -1.119000
18.969000 -3.869000 -0.530000
22.205000 -4.524000 0.104000
18.659000 -3.859000 -0.826000
19.447001 -4.009000 -0.239000
22.143000 -4.563000 0.476000
18.247999 -3.838000 -1.124000
18.969000 -3.968000 -0.533000
22.157000 -4.632000 0.100000
18.655001 -3.956000 -0.830000
19.868000 -4.200000 -0.248000
22.096001 -4.668000 0.472000
18.302000 -3.946000 -1.132000
18.995001 -4.076000 -0.538000
22.108999 -4.738000 0.096000
18.733999 -4.072000 -0.838000
20.316999 -4.404000 -0.257000
22.061001 -4.776000 0.468000
18.339001 -4.054000 -1.139000
19.226000 -4.227000 -0.549000
22.059999 -4.843000 0.092000
18.738001 -4.175000 -0.843000
22.056000 -4.897000 -0.284000
22.025999 -4.885000 0.463000
18.365999 -4.158000 -1.145000
19.441000 -4.377000 -0.559000
22.014999 -4.951000 0.088000
18.854000 -4.301000 -0.853000
22.035999 -5.009000 -0.288000
21.971001 -4.989000 0.459000
18.441999 -4.275000 -1.155000
19.992001 -4.610000 -0.580000
21.990999 -5.062000 0.084000
18.961000 -4.427000 -0.862000
21.993000 -5.118000 -0.292000
22.114000 -5.138000 0.459000
18.566000 -4.404000 -1.168000
20.674000 -4.877000 -0.604000
21.947001 -5.168000 0.080000
19.111000 -4.567000 -0.874000
21.934000 -5.221000 -0.295000
22.559999 -5.361000 0.465000
18.603001 -4.515000 -1.176000
21.139000 -5.100000 -0.622000
21.899000 -5.275000 0.076000
19.402000 -4.741000 -0.892000
21.909000 -5.332000 -0.299000
22.712000 -5.520000 0.464000
18.695999 -4.639000 -1.187000
21.851000 -5.390000 -0.649000
21.853001 -5.380000 0.072000
19.676001 -4.914000 -0.910000
21.858999 -5.440000 -0.303000
42.792999 -10.628000 0.868000
18.840000 -4.778000 -1.201000
21.867001 -5.513000 -0.654000
21.851999 -5.497000 0.068000
20.316000 -5.186000 -0.945000
21.822001 -5.548000 -0.307000
42.646000 -10.819000 0.859000
19.037001 -4.933000 -1.219000
21.836000 -5.623000 -0.658000
22.170000 -5.697000 0.064000
20.870001 -5.441000 -0.976000
21.780001 -5.654000 -0.311000
42.595001 -11.039000 0.851000
19.379000 -5.127000 -1.246000
21.788000 -5.730000 -0.662000
22.517000 -5.908000 0.062000
21.382999 -5.691000 -1.005000
21.738001 -5.763000 -0.315000
43.256001 -11.442000 0.858000
20.031000 -5.410000 -1.294000
21.745001 -5.838000 -0.665000
41.784000 -11.189000 0.108000
21.480000 -5.835000 -1.016000
21.705000 -5.872000 -0.319000
43.754002 -11.810000 0.861000
20.465000 -5.642000 -1.328000
21.705999 -5.946000 -0.669000
41.358002 -11.301000 0.098000
21.490999 -5.958000 -1.022000
21.733999 -5.998000 -0.324000
43.570999 -12.001000 0.850000
20.615000 -5.798000 -1.344000
21.659000 -6.053000 -0.673000
41.172001 -11.476000 0.092000
21.582001 -6.102000 -1.031000
22.225000 -6.258000 -0.336000
43.948002 -12.342000 0.852000
20.910000 -5.997000 -1.369000
21.605000 -6.158000 -0.676000
40.824001 -11.601000 0.084000
21.601000 -6.227000 -1.039000
22.407000 -6.432000 -0.343000
43.834000 -12.549000 0.843000
20.979000 -6.136000 -1.380000
21.573000 -6.268000 -0.680000
40.797001 -11.819000 0.076000
21.570000 -6.340000 -1.042000
35.785999 -10.469000 -0.555000
42.783001 -12.486000 0.816000
20.988001 -6.256000 -1.387000
21.552000 -6.381000 -0.684000
40.518002 -11.963000 0.069000
21.530001 -6.448000 -1.046000
35.695000 -10.641000 -0.562000
42.768002 -12.716000 0.810000
20.962000 -6.366000 -1.391000
21.844000 -6.591000 -0.699000
40.375000 -12.143000 0.061000
22.208000 -6.776000 -1.085000
35.479000 -10.776000 -0.565000
45.244999 -13.702000 0.850000
20.958000 -6.485000 -1.397000
30.490000 -9.370000 -0.983000
40.676998 -12.461000 0.054000
25.959000 -8.068000 -1.275000
35.349998 -10.933000 -0.570000
45.002998 -13.879000 0.838000
21.233000 -6.690000 -1.422000
30.420000 -9.518000 -0.987000
40.636002 -12.677000 0.048000
25.799999 -8.164000 -1.274000
30.969999 -9.753000 -0.507000
44.926998 -14.108000 0.831000
21.846001 -7.007000 -1.470000
30.344999 -9.669000 -0.992000
40.604000 -12.894000 0.041000
25.664000 -8.268000 -1.275000
30.843000 -9.888000 -0.510000
44.206001 -14.128000 0.812000
21.872000 -7.142000 -1.478000
26.290001 -8.525000 -0.865000
40.481998 -13.083000 0.033000
25.546000 -8.376000 -1.275000
30.781000 -10.041000 -0.515000
44.153000 -14.360000 0.804000
21.877001 -7.270000 -1.485000
26.153000 -8.629000 -0.867000
40.519001 -13.326000 0.027000
25.469000 -8.497000 -1.278000
30.844000 -10.237000 -0.523000
41.535000 -13.744000 0.751000
21.914000 -7.408000 -1.494000
26.059000 -8.747000 -0.870000
40.441002 -13.528000 0.021000
25.459000 -8.640000 -1.285000
34.856998 -11.770000 -0.597000
41.449001 -13.949000 0.745000
21.895000 -7.529000 -1.500000
25.959000 -8.864000 -0.872000
40.444000 -13.759000 0.014000
25.414000 -8.773000 -1.288000
30.643999 -10.522000 -0.531000
41.363998 -14.157000 0.737000
21.848000 -7.641000 -1.502000
25.905001 -8.994000 -0.876000
39.853001 -13.786000 0.007000
25.378000 -8.907000 -1.293000
34.706001 -12.117000 -0.609000
41.272999 -14.363000 0.731000
21.816999 -7.758000 -1.507000
25.889000 -9.139000 -0.882000
39.463001 -13.879000 0.002000
25.393999 -9.061000 -1.301000
34.632999 -12.293000 -0.613000
41.167000 -14.561000 0.724000
21.761999 -7.866000 -1.510000
25.907000 -9.297000 -0.888000
39.212002 -14.016000 -0.003000
25.332001 -9.188000 -1.303000
34.551998 -12.464000 -0.618000
42.923000 -15.430000 0.749000
21.721001 -7.981000 -1.513000
25.900999 -9.445000 -0.893000
39.067001 -14.191000 -0.010000
25.316000 -9.330000 -1.309000
34.361000 -12.596000 -0.622000
41.528999 -15.171000 0.722000
21.664000 -8.094000 -1.516000
25.889999 -9.608000 -0.899000
41.124001 -15.204000 -0.016000
25.261000 -9.483000 -1.314000
34.439999 -12.868000 -0.629000
44.021000 -16.400000 0.758000
21.622000 -8.240000 -1.521000
25.823000 -9.775000 -0.904000
41.113998 -15.511000 -0.023000
25.146999 -9.634000 -1.316000
34.386002 -13.110000 -0.636000
47.617001 -18.103001 0.815000
21.556999 -8.384000 -1.524000
25.766001 -9.953000 -0.908000
41.153999 -15.842000 -0.031000
25.058001 -9.794000 -1.319000
34.268002 -13.329000 -0.642000
47.519001 -18.427999 0.808000
21.493999 -8.527000 -1.527000
25.788000 -10.160000 -0.915000
40.101002 -15.746000 -0.036000
25.070999 -9.996000 -1.327000
34.034000 -13.500000 -0.645000
47.277000 -18.698000 0.798000
21.441000 -8.676000 -1.532000
25.777000 -10.358000 -0.922000
38.660999 -15.479000 -0.040000
25.127001 -10.216000 -1.338000
34.112999 -13.799000 -0.652000
41.132999 -16.587999 0.691000
21.382999 -8.823000 -1.534000
28.302999 -11.593000 -1.019000
38.556000 -15.738000 -0.047000
25.105000 -10.406000 -1.345000
33.953999 -14.002000 -0.656000
41.033001 -16.865999 0.686000
21.330999 -8.971000 -1.538000
27.813999 -11.614000 -1.007000
38.514999 -16.025000 -0.050000
25.148001 -10.624000 -1.353000
33.889000 -14.241000 -0.661000
41.256001 -17.282000 0.686000
21.261999 -9.114000 -1.541000
27.539000 -11.719000 -1.004000
38.356998 -16.261000 -0.054000
25.177000 -10.838000 -1.362000
33.780998 -14.465000 -0.663000
46.837002 -19.990999 0.778000
21.202000 -9.261000 -1.543000
29.319000 -12.710000 -1.076000
40.560001 -17.517000 -0.063000
25.201000 -11.052000 -1.371000
33.757999 -14.726000 -0.669000
46.766998 -20.330999 0.774000
21.159000 -9.413000 -1.547000
29.135000 -12.866000 -1.074000
40.317001 -17.737000 -0.065000
25.278999 -11.293000 -1.381000
33.714001 -14.977000 -0.673000
46.986000 -20.802999 0.775000
21.097000 -9.559000 -1.549000
29.158001 -13.113000 -1.081000
40.428001 -18.108999 -0.068000
25.257000 -11.489000 -1.386000
33.561001 -15.182000 -0.674000
47.153999 -21.259001 0.779000
21.042000 -9.710000 -1.551000
29.083000 -13.316000 -1.083000
40.341000 -18.398001 -0.072000
25.156000 -11.650000 -1.386000
33.564999 -15.458000 -0.678000
45.165001 -20.726999 0.746000
20.974001 -9.852000 -1.552000
28.850000 -13.448000 -1.078000
40.301998 -18.711000 -0.072000
25.034000 -11.803000 -1.384000
33.492001 -15.699000 -0.680000
46.091999 -21.528999 0.761000
20.902000 -9.993000 -1.553000
28.728001 -13.629000 -1.079000
40.180000 -18.983000 -0.073000
22.663000 -10.873000 -1.258000
33.405998 -15.937000 -0.680000
45.973000 -21.853001 0.762000
20.868999 -10.153000 -1.556000
28.466999 -13.742000 -1.073000
40.438000 -19.440001 -0.076000
22.709000 -11.087000 -1.266000
33.422001 -16.223000 -0.684000
29.572001 -14.301000 0.492000
20.802999 -10.298000 -1.556000
27.868000 -13.687000 -1.052000
40.219002 -19.672001 -0.073000
24.469000 -12.152000 -1.368000
33.402000 -16.493000 -0.685000
44.681999 -21.982000 0.745000
20.736000 -10.443000 -1.557000
27.636000 -13.808000 -1.048000
40.334999 -20.068001 -0.074000
24.757000 -12.507000 -1.387000
33.379002 -16.764000 -0.684000
44.585999 -22.311001 0.750000
20.674999 -10.590000 -1.556000
27.438999 -13.943000 -1.042000
40.493000 -20.488001 -0.073000
24.865999 -12.777000 -1.397000
27.594000 -14.094000 -0.567000
45.624001 -23.216999 0.771000
20.625000 -10.744000 -1.556000
26.323999 -13.602000 -1.000000
26.674999 -13.725000 -0.045000
24.316999 -12.705000 -1.370000
26.037001 -13.522000 -0.535000
44.581001 -23.065001 0.759000
20.566999 -10.895000 -1.556000
24.365999 -12.802000 -0.928000
40.493000 -21.181999 -0.066000
23.235001 -12.343000 -1.310000
23.951000 -12.647000 -0.490000
44.164001 -23.231001 0.761000
22.243000 -11.978000 -1.687000
22.857000 -12.207000 -0.871000
40.338001 -21.448000 -0.061000
21.848000 -11.798000 -1.234000
22.462999 -12.057000 -0.459000
44.084999 -23.572001 0.766000
22.235001 -12.172000 -1.688000
21.344000 -11.588000 -0.812000
40.695999 -21.995001 -0.054000
24.902000 -13.667000 -1.408000
33.358002 -18.195999 -0.680000
46.498001 -25.266001 0.819000
22.202000 -12.353000 -1.689000
28.822001 -15.903000 -1.097000
40.432999 -22.209000 -0.049000
24.941999 -13.913000 -1.411000
33.351002 -18.489000 -0.675000
44.844002 -24.763000 0.803000
22.223000 -12.564000 -1.693000
28.870001 -16.184999 -1.097000
40.247002 -22.461000 -0.041000
25.011999 -14.177000 -1.416000
33.507000 -18.874001 -0.675000
43.544998 -24.433001 0.789000
22.195999 -12.752000 -1.692000
28.952999 -16.493000 -1.097000
40.964001 -23.229000 -0.031000
25.097000 -14.452000 -1.420000
33.506001 -19.173000 -0.670000
43.473000 -24.778999 0.801000
22.204000 -12.960000 -1.694000
28.940001 -16.747999 -1.095000
40.507000 -23.334000 -0.022000
25.090000 -14.678000 -1.417000
33.661999 -19.568001 -0.665000
43.688000 -25.292999 0.820000
22.283001 -13.211000 -1.701000
28.982000 -17.035999 -1.093000
41.301998 -24.165001 -0.011000
25.108000 -14.920000 -1.418000
33.719002 -19.909000 -0.660000
43.840000 -25.784000 0.839000
22.305000 -13.432000 -1.701000
28.899000 -17.253000 -1.083000
41.132000 -24.440001 0.000000
25.080000 -15.135000 -1.414000
33.873001 -20.309999 -0.655000
44.158001 -26.372999 0.863000
22.254999 -13.611000 -1.698000
29.030001 -17.601000 -1.084000
41.388000 -24.976000 0.015000
25.131001 -15.401000 -1.412000
33.959000 -20.677999 -0.645000
44.033001 -26.702999 0.879000
22.271999 -13.831000 -1.698000
29.031000 -17.871000 -1.077000
41.060001 -25.158001 0.031000
25.118999 -15.631000 -1.408000
34.047001 -21.049000 -0.637000
42.334000 -26.070999 0.865000
22.294001 -14.058000 -1.696000
29.068001 -18.169001 -1.070000
41.355000 -25.724001 0.048000
25.174000 -15.903000 -1.407000
34.175999 -21.448999 -0.628000
41.555000 -25.978001 0.871000
22.280001 -14.263000 -1.693000
29.146999 -18.495001 -1.065000
41.783001 -26.389000 0.067000
25.219000 -16.174000 -1.402000
34.421001 -21.931000 -0.618000
41.584999 -26.389000 0.894000
22.285000 -14.481000 -1.690000
29.225000 -18.822001 -1.058000
41.299999 -26.473000 0.087000
25.271999 -16.452000 -1.400000
34.515999 -22.323000 -0.606000
41.516998 -26.745001 0.917000
22.319000 -14.721000 -1.687000
29.309000 -19.159000 -1.049000
40.948002 -26.639000 0.108000
25.337999 -16.739000 -1.395000
34.786999 -22.830999 -0.594000
41.231998 -26.957001 0.937000
22.368999 -14.974000 -1.686000
29.365999 -19.482000 -1.040000
41.251999 -27.240000 0.133000
25.372000 -17.011000 -1.387000
35.014999 -23.323000 -0.579000
41.082001 -27.254000 0.961000
22.363001 -15.190000 -1.680000
29.441999 -19.819000 -1.030000
41.064999 -27.514000 0.157000
25.483000 -17.337000 -1.385000
35.210999 -23.799000 -0.565000
40.807999 -27.476000 0.985000
22.438999 -15.466000 -1.677000
29.525000 -20.164000 -1.018000
41.556000 -28.250000 0.186000
25.579000 -17.656000 -1.379000
35.314999 -24.216000 -0.545000
41.401001 -28.281000 1.030000
22.457001 -15.704000 -1.671000
29.757000 -20.622000 -1.010000
40.603001 -28.007000 0.212000
25.659000 -17.968000 -1.369000
35.685001 -24.823000 -0.528000
40.625999 -28.153000 1.044000
22.514999 -15.971000 -1.666000
29.976000 -21.072001 -1.000000
40.765999 -28.524000 0.243000
25.731001 -18.278999 -1.361000
35.731998 -25.216000 -0.504000
40.651001 -28.580999 1.081000
22.579000 -16.247999 -1.660000
30.000999 -21.389999 -0.982000
40.616001 -28.826000 0.275000
25.836000 -18.615000 -1.352000
35.958000 -25.737000 -0.481000
40.542000 -28.912001 1.115000
22.674999 -16.549999 -1.656000
30.172001 -21.820999 -0.966000
40.471001 -29.136999 0.309000
25.979000 -18.985001 -1.342000
36.101002 -26.205000 -0.454000
40.405998 -29.225000 1.150000
22.778000 -16.858999 -1.651000
30.351000 -22.259001 -0.949000
40.362000 -29.468000 0.345000
26.106001 -19.348000 -1.333000
36.404999 -26.804001 -0.427000
40.243999 -29.525000 1.187000
22.802999 -17.117001 -1.639000
30.527000 -22.702000 -0.931000
40.257000 -29.804001 0.383000
26.282000 -19.747999 -1.323000
37.006001 -27.625000 -0.401000
40.167999 -29.884001 1.228000
22.931000 -17.451000 -1.634000
30.750000 -23.190001 -0.912000
40.131001 -30.131001 0.423000
26.378000 -20.099001 -1.307000
37.285000 -28.219000 -0.368000
39.987000 -30.162001 1.269000
23.042000 -17.777000 -1.625000
31.167000 -23.827999 -0.896000
40.004002 -30.452000 0.465000
26.504999 -20.473000 -1.291000
37.534000 -28.805000 -0.332000
39.938000 -30.549999 1.316000
23.139000 -18.100000 -1.614000
31.424999 -24.353001 -0.873000
39.910999 -30.797001 0.510000
26.697001 -20.903000 -1.277000
39.173000 -30.474001 -0.305000
39.839001 -30.893999 1.362000
23.295000 -18.469000 -1.605000
31.760000 -24.952000 -0.850000
39.730000 -31.083000 0.556000
26.862000 -21.320000 -1.259000
38.712002 -30.525000 -0.258000
39.653999 -31.171000 1.409000
23.419001 -18.816999 -1.593000
32.071999 -25.537001 -0.824000
39.603001 -31.405001 0.604000
27.094999 -21.794001 -1.242000
39.137001 -31.282000 -0.213000
39.525002 -31.499001 1.460000
23.535999 -19.165001 -1.580000
32.268002 -26.038000 -0.792000
39.487000 -31.735001 0.655000
27.257999 -22.216999 -1.220000
39.452999 -31.955999 -0.165000
39.389999 -31.815001 1.513000
23.716999 -19.570000 -1.566000
32.716000 -26.754000 -0.762000
39.388000 -32.087002 0.709000
27.445999 -22.667999 -1.199000
39.372002 -32.314999 -0.112000
39.269001 -32.143002 1.569000
23.905001 -19.983999 -1.553000
32.953999 -27.304001 -0.726000
39.230999 -32.382000 0.765000
27.732000 -23.205999 -1.175000
39.243999 -32.640999 -0.056000
39.122002 -32.457001 1.626000
24.062000 -20.379000 -1.537000
33.590000 -28.195000 -0.694000
39.096001 -32.696999 0.822000
28.104000 -23.823000 -1.155000
39.083000 -32.931000 0.001000
39.011002 -32.793999 1.687000
24.226999 -20.785000 -1.516000
33.839001 -28.778000 -0.651000
38.990002 -33.042000 0.884000
28.441999 -24.422001 -1.132000
38.952000 -33.248001 0.062000
38.873001 -33.106998 1.750000
24.379999 -21.183001 -1.493000
34.292000 -29.538000 -0.608000
38.842999 -33.345001 0.947000
28.747000 -25.002001 -1.101000
38.814999 -33.563999 0.125000
38.743999 -33.435001 1.816000
24.672001 -21.709000 -1.479000
32.810001 -28.620001 -0.530000
34.435001 -29.941000 0.901000
29.134001 -25.659000 -1.072000
32.796001 -28.722000 0.162000
38.605999 -33.747002 1.884000
24.936001 -22.219000 -1.456000
32.678001 -28.871000 -0.473000
38.666000 -34.056999 1.084000
29.665001 -26.455000 -1.046000
38.561001 -34.195000 0.259000
38.472000 -34.063000 1.954000
25.146999 -22.684999 -1.430000
36.796001 -32.915001 -0.469000
32.549000 -29.032000 0.975000
30.080000 -27.159000 -1.008000
38.424000 -34.507999 0.331000
38.368999 -34.410999 2.031000
25.474001 -23.263000 -1.409000
36.875000 -33.393002 -0.403000
38.355999 -34.643002 1.227000
30.379999 -27.767000 -0.965000
34.057999 -30.966999 0.360000
38.202999 -34.695000 2.105000
25.830999 -23.875999 -1.382000
37.905998 -34.751999 -0.341000
32.303001 -29.541000 1.100000
30.768000 -28.464001 -0.922000
38.158001 -35.120998 0.480000
38.091000 -35.028000 2.185000
26.156000 -24.465000 -1.353000
33.974998 -31.525000 -0.238000
32.307999 -29.912001 1.174000
31.350000 -29.351000 -0.876000
37.995998 -35.403999 0.560000
37.988998 -35.370998 2.266000
26.497000 -25.077000 -1.323000
30.718000 -28.843000 -0.152000
37.936001 -35.550999 1.465000
30.629999 -29.014999 -0.795000
30.591000 -28.844000 0.519000
37.942001 -35.764999 2.360000
26.896000 -25.754000 -1.287000
33.277000 -31.621000 -0.091000
33.618999 -31.888000 1.376000
0.000000 0.000000 0.000000
30.539000 -29.136999 0.588000
40.790001 -38.918999 2.640000
27.459999 -26.593000 -1.257000
32.095001 -30.853001 -0.016000
33.101002 -31.775999 1.440000
31.778000 -30.809000 -0.687000
37.691002 -36.389000 0.818000
39.369999 -38.019001 2.650000
27.882000 -27.308001 -1.219000
31.825001 -30.943001 0.058000
33.466999 -32.504002 1.542000
31.256001 -30.645000 -0.604000
39.330002 -38.410999 0.951000
39.235001 -38.344002 2.752000
28.482000 -28.207001 -1.178000
0.000000 0.000000 0.000000
32.976002 -32.401001 1.605000
31.237000 -30.966999 -0.531000
0.000000 0.000000 0.000000
39.080002 -38.643002 2.851000
29.150000 -29.183001 -1.138000
0.000000 0.000000 0.000000
39.049999 -38.814999 2.013000
0.000000 0.000000 0.000000
31.073000 -31.041000 0.917000
38.960999 -38.973000 2.955000
29.582001 -29.931999 -1.084000
0.000000 0.000000 0.000000
38.993999 -39.198002 2.121000
0.000000 0.000000 0.000000
0.000000 0.000000 0.000000
38.726002 -39.188000 3.059000
29.620001 -30.285999 -1.007000
30.333000 -30.825001 0.372000
38.262001 -38.891998 2.192000
0.000000 0.000000 0.000000
30.858000 -31.507000 1.083000
37.997002 -38.883999 3.120000
29.475000 -30.445000 -0.925000
30.863001 -31.693001 0.466000
37.655998 -38.698002 2.277000
0.000000 0.000000 0.000000
0.000000 0.000000 0.000000
37.306000 -38.603001 3.182000
0.000000 0.000000 0.000000
30.799999 -31.955999 0.553000
37.054001 -38.487999 2.357000
29.910999 -31.247999 -0.104000
0.000000 0.000000 0.000000
36.603001 -38.292000 3.248000
0.000000 0.000000 0.000000
36.341999 -38.087002 0.762000
36.400002 -38.209000 2.432000
29.458000 -31.079000 -0.016000
34.102001 -35.922001 1.513000
36.070000 -38.139000 3.325000
0.000000 0.000000 0.000000
34.900002 -36.937000 0.845000
35.830002 -38.002998 2.518000
29.261999 -31.169001 0.076000
34.915001 -37.145000 1.664000
34.761002 -37.143002 3.326000
29.173000 -31.309000 -0.579000
34.915001 -37.308998 0.956000
34.804001 -37.285000 2.567000
0.000000 0.000000 0.000000
34.845001 -37.436001 1.782000
34.730000 -37.497002 3.453000
29.063000 -31.471001 -0.482000
32.762001 -35.333000 1.006000
34.699001 -37.540001 2.680000
0.000000 0.000000 0.000000
34.463001 -37.374001 1.880000
34.310001 -37.417000 3.540000
28.993000 -31.663000 -0.387000
32.375000 -35.234001 1.108000
34.167000 -37.321999 2.768000
32.290001 -35.331001 0.402000
34.095001 -37.313999 1.982000
33.844002 -37.270000 3.621000
31.329000 -34.495998 -0.316000
32.769001 -35.976002 1.234000
33.687000 -37.140999 2.856000
32.095001 -35.410999 0.510000
33.619999 -37.124001 2.081000
33.354000 -37.084999 3.704000
33.219002 -36.868999 -0.218000
32.789001 -36.299000 1.354000
33.174999 -36.905998 2.938000
31.674999 -35.230999 0.614000
33.168999 -36.942001 2.175000
32.875000 -36.890999 3.784000
31.094999 -34.771999 -0.095000
31.180000 -34.799000 1.406000
31.032000 -34.827000 2.874000
31.040001 -34.789001 0.718000
30.985001 -34.794998 2.151000
30.691999 -34.750999 3.657000
31.065001 -34.990002 0.014000
30.891001 -34.744999 1.507000
30.796000 -34.851002 2.976000
30.993000 -34.991001 0.833000
30.862000 -34.931999 2.268000
30.694000 -35.056000 3.791000
30.966000 -35.117001 0.132000
30.902000 -35.014000 1.627000
30.770000 -35.105000 3.099000
30.936001 -35.169998 0.947000
30.778999 -35.102001 2.383000
30.629999 -35.275002 3.916000
30.922001 -35.290001 0.249000
30.806999 -35.151001 1.748000
30.688000 -35.284000 3.223000
30.823000 -35.271000 1.063000
30.698000 -35.261002 2.502000
30.516001 -35.424000 4.033000
30.858000 -35.426998 0.365000
30.754000 -35.324001 1.866000
30.594999 -35.432999 3.344000
30.764000 -35.418999 1.187000
30.629999 -35.424999 2.628000
30.433001 -35.601002 4.162000
30.777000 -35.530998 0.484000
30.707001 -35.487999 1.988000
30.493999 -35.562000 3.463000
30.702000 -35.549999 1.306000
30.429001 -35.415001 2.737000
30.288000 -35.688000 4.280000
30.728001 -35.657001 0.610000
30.639000 -35.617001 2.115000
30.378000 -35.661999 3.588000
30.634001 -35.658001 1.428000
30.452999 -35.653999 2.870000
30.231001 -35.861000 4.409000
30.620001 -35.695000 0.730000
30.544001 -35.696999 2.235000
30.368000 -35.868999 3.722000
30.524000 -35.702999 1.553000
30.429001 -35.826000 3.004000
29.999001 -35.819000 4.519000
30.632000 -35.859001 0.855000
30.537001 -35.860001 2.364000
30.171000 -35.837002 3.832000
30.548000 -35.887001 1.680000
30.285999 -35.839001 3.121000
29.705999 -35.681000 4.615000
30.533001 -35.875999 0.983000
30.371000 -35.825001 2.486000
29.846001 -35.639000 3.930000
30.424999 -35.876999 1.802000
30.111000 -35.792999 3.236000
29.035000 -35.067001 4.647000
30.405001 -35.840000 1.104000
30.198000 -35.759998 2.600000
29.677000 -35.605000 4.044000
30.271000 -35.817001 1.926000
29.952000 -35.751999 3.356000
28.731001 -34.875000 4.739000
30.304001 -35.816002 1.227000
30.044001 -35.700001 2.717000
29.525999 -35.575001 4.158000
30.160999 -35.789001 2.046000
29.761999 -35.654999 3.466000
28.954000 -35.306000 4.915000
30.160999 -35.723999 1.353000
29.934000 -35.673000 2.843000
29.370001 -35.521999 4.276000
30.073000 -35.768002 2.169000
29.636999 -35.613998 3.584000
28.885000 -35.362000 5.040000
30.108000 -35.720001 1.477000
29.855000 -35.662998 2.964000
28.735001 -34.863998 4.316000
29.980000 -35.721001 2.296000
29.559999 -35.615002 3.712000
28.669001 -35.221001 5.140000
30.066000 -35.709000 1.602000
29.768999 -35.626999 3.085000
28.562000 -34.748001 4.420000
29.940001 -35.717999 2.420000
29.434000 -35.532001 3.826000
28.632999 -35.282001 5.276000
30.093000 -35.764000 1.735000
29.711000 -35.606998 3.213000
28.596001 -34.865002 4.557000
29.888000 -35.682999 2.544000
29.362000 -35.499001 3.948000
28.577000 -35.296001 5.400000
30.090000 -35.758999 1.861000
29.684000 -35.599998 3.338000
28.855000 -35.237999 4.733000
29.756001 -35.533001 2.664000
29.388000 -35.566002 4.086000
28.480000 -35.241001 5.516000
30.136000 -35.796001 1.990000
29.701000 -35.630001 3.468000
28.888000 -35.313000 4.870000
29.906000 -35.700001 2.802000
29.349001 -35.530998 4.207000
28.471001 -35.276001 5.650000
30.202999 -35.839001 2.125000
29.718000 -35.639000 3.601000
28.922001 -35.370998 5.005000
29.974001 -35.747002 2.935000
29.368999 -35.547001 4.338000
28.410999 -35.226002 5.770000
30.264000 -35.855000 2.252000
29.766001 -35.667000 3.731000
28.944000 -35.395000 5.139000
30.056000 -35.793999 3.072000
29.417999 -35.581001 4.476000
28.440001 -35.262001 5.906000
30.341999 -35.869999 2.382000
29.796000 -35.652000 3.859000
28.972000 -35.405998 5.271000
30.153999 -35.839001 3.203000
29.417999 -35.534000 4.598000
28.462999 -35.272999 6.040000
30.478001 -35.937000 2.520000
29.919001 -35.729000 4.002000
29.062000 -35.469002 5.412000
30.264000 -35.881001 3.337000
29.478001 -35.541000 4.730000
28.535999 -35.326000 6.181000
30.135000 -35.419998 2.609000
30.048000 -35.792000 4.138000
29.152000 -35.514000 5.553000
30.379999 -35.908001 3.475000
29.386999 -35.346001 4.839000
28.473000 -35.188000 6.289000
30.392000 -35.592999 2.750000
30.190001 -35.853001 4.277000
29.257999 -35.558998 5.694000
30.320999 -35.709000 3.584000
29.649000 -35.551998 4.998000
28.169001 -34.730000 6.342000
30.504000 -35.577000 2.881000
30.292999 -35.848000 4.413000
29.398001 -35.623001 5.838000
30.448000 -35.714001 3.714000
29.955000 -35.793999 5.166000
28.797001 -35.403000 6.600000
30.563999 -35.478001 2.999000
30.306000 -35.714001 4.527000
29.577999 -35.714001 5.991000
30.459999 -35.566002 3.833000
30.068001 -35.785000 5.299000
29.000999 -35.532001 6.761000
30.584000 -35.320999 3.112000
30.364000 -35.619999 4.647000
29.778999 -35.808998 6.144000
30.504999 -35.437000 3.947000
30.143999 -35.710999 5.424000
29.187000 -35.615002 6.917000
30.632999 -35.180000 3.230000
30.437000 -35.525002 4.766000
29.988001 -35.896000 6.297000
30.559999 -35.306000 4.061000
30.238001 -35.639999 5.549000
29.402000 -35.713001 7.076000
30.726999 -35.075001 3.344000
30.461000 -35.355000 4.877000
29.987000 -35.709000 6.403000
30.642000 -35.189999 4.181000
30.309000 -35.526001 5.665000
29.638000 -35.813999 7.237000
30.688999 -34.805000 3.443000
30.514999 -35.206001 4.988000
29.937000 -35.450001 6.494000
30.662001 -34.986000 4.282000
30.347000 -35.354000 5.774000
29.280001 -35.181000 7.250000
32.821999 -36.967999 3.794000
30.563000 -35.032001 5.094000
30.166000 -35.501999 6.642000
30.775999 -34.876999 4.396000
30.430000 -35.222000 5.887000
29.937000 -35.750000 7.509000
33.167999 -37.085999 3.936000
30.580000 -34.806999 5.193000
30.249001 -35.362999 6.755000
32.946999 -37.063999 4.812000
30.468000 -35.020000 5.987000
30.055000 -35.652000 7.630000
33.574001 -37.254002 4.086000
32.715000 -36.966999 5.653000
30.347000 -35.228001 6.867000
33.347000 -37.224998 4.966000
30.580000 -34.888000 6.099000
30.110001 -35.458000 7.733000
33.973999 -37.395000 4.238000
33.124001 -37.140999 5.819000
30.389999 -35.014999 6.963000
33.780998 -37.409000 5.127000
32.660000 -36.971001 6.605000
30.205999 -35.303001 7.841000
34.452000 -37.599998 4.392000
33.547001 -37.305000 5.986000
30.495001 -34.855000 7.069000
34.227001 -37.584999 5.292000
32.551998 -36.549000 6.669000
30.252001 -35.075001 7.931000
34.570999 -37.403000 4.501000
34.015999 -37.507999 6.158000
32.651001 -37.007999 7.652000
34.425999 -37.470001 5.410000
33.563000 -37.359001 6.962000
30.334999 -34.870998 8.028000
35.521000 -38.084999 4.717000
34.464001 -37.667999 6.325000
33.143002 -37.238998 7.847000
34.526001 -37.237999 5.511000
34.066002 -37.578999 7.148000
32.495998 -37.022999 8.674000
36.068001 -38.306000 4.881000
34.441002 -37.294998 6.403000
33.570999 -37.375000 8.025000
35.722000 -38.168999 5.787000
34.298000 -37.486000 7.274000
33.028000 -37.283001 8.887000
36.665001 -38.563999 5.048000
35.555000 -38.137001 6.690000
34.112000 -37.619999 8.226000
36.355000 -38.465000 5.972000
34.363998 -37.194000 7.362000
33.487999 -37.436001 9.078000
37.234001 -38.776001 5.211000
36.049000 -38.287998 6.860000
34.224998 -37.375000 8.321000
36.948002 -38.703999 6.149000
35.717999 -38.277000 7.723000
34.051998 -37.688000 9.294000
37.875999 -39.037998 5.383000
36.638000 -38.516998 7.046000
35.268002 -38.119999 8.641000
37.601002 -38.984001 6.334000
36.299000 -38.502998 7.917000
34.125000 -37.382999 9.372000
38.529999 -39.298000 5.555000
37.242001 -38.747002 7.232000
35.869999 -38.369999 8.850000
38.269001 -39.255001 6.521000
36.952000 -38.779999 8.125000
35.195999 -38.141998 9.722000
38.636002 -38.980999 5.642000
38.056000 -39.174000 7.457000
36.497002 -38.625000 9.062000
38.502998 -39.070999 6.630000
37.599998 -39.036999 8.329000
35.876999 -38.458000 9.961000
38.737999 -38.654999 5.732000
38.426998 -39.118999 7.595000
37.161999 -38.893002 9.283000
38.611000 -38.748001 6.711000
38.242001 -39.268002 8.529000
36.543999 -38.737000 10.193000
38.890999 -38.376999 5.822000
38.348000 -38.605999 7.638000
37.903999 -39.223999 9.519000
38.761002 -38.458000 6.803000
38.369999 -38.950001 8.612000
37.240002 -39.020000 10.432000
39.133999 -38.175999 5.919000
38.676998 -38.497002 7.759000
38.194000 -39.073002 9.638000
38.807999 -38.066002 6.869000
38.529999 -38.661999 8.698000
37.962002 -39.310001 10.673000
53.007000 -51.111000 8.104000
38.693001 -38.063000 7.815000
38.286999 -38.705002 9.705000
0.000000 0.000000 0.000000
38.603001 -38.283001 8.760000
38.139999 -39.026001 10.759000
53.147999 -50.643002 8.202000
0.000000 0.000000 0.000000
38.494999 -38.452999 9.796000
60.480000 -57.932999 10.869000
0.000000 0.000000 0.000000
38.299999 -38.710999 10.831000
0.000000 0.000000 0.000000
53.215000 -51.112999 10.874000
38.611000 -38.099998 9.860000
53.591999 -50.720001 9.695000
53.243999 -51.535000 12.193000
38.379002 -38.311001 10.885000
50.542999 -47.006001 7.933000
53.381001 -50.641998 10.964000
0.000000 0.000000 0.000000
53.817001 -50.306000 9.792000
0.000000 0.000000 0.000000
0.000000 0.000000 0.000000
49.652000 -45.612000 7.851000
54.334000 -50.911999 11.212000
52.653000 -50.667000 13.525000
53.750000 -49.618999 9.839000
0.000000 0.000000 0.000000
0.000000 0.000000 0.000000
49.923000 -45.285999 7.944000
54.133999 -50.091999 11.217000
0.000000 0.000000 0.000000
54.256001 -49.459000 9.982000
53.647999 -49.998001 12.414000
0.000000 0.000000 0.000000
0.000000 0.000000 0.000000
54.683998 -49.950001 11.374000
0.000000 0.000000 0.000000
54.994999 -49.493999 10.161000
54.188999 -49.855999 12.573000
0.000000 0.000000 0.000000
0.000000 0.000000 0.000000
0.000000 0.000000 0.000000
0.000000 0.000000 0.000000
0.000000 0.000000 0.000000
54.490002 -49.473999 12.672000
0.000000 0.000000 0.000000
60.661999 -52.946999 9.822000
0.000000 0.000000 0.000000
54.390999 -49.674999 14.073000
0.000000 0.000000 0.000000
56.750999 -50.848000 13.223000
0.000000 0.000000 0.000000
0.000000 0.000000 0.000000
0.000000 0.000000 0.000000
54.726002 -49.310001 14.170000
60.499001 -52.346001 11.306000
0.000000 0.000000 0.000000
0.000000 0.000000 0.000000
0.000000 0.000000 0.000000
0.000000 0.000000 0.000000
0.000000 0.000000 0.000000
0.000000 0.000000 0.000000
0.000000 0.000000 0.000000
0.000000 0.000000 0.000000
0.000000 0.000000 0.000000
0.000000 0.000000 0.000000
0.000000 0.000000 0.000000
0.000000 0.000000 0.000000
0.000000 0.000000 0.000000
0.000000 0.000000 0.000000
0.000000 0.000000 0.000000
0.000000 0.000000 0.000000
0.000000 0.000000 0.000000
0.000000 0.000000 0.000000
66.713997 -56.605000 15.617000
65.867996 -57.481998 18.812000
0.000000 0.000000 0.000000
0.000000 0.000000 0.000000
0.000000 0.000000 0.000000
0.000000 0.000000 0.000000
0.000000 0.000000 0.000000
0.000000 0.000000 0.000000
0.000000 0.000000 0.000000
0.000000 0.000000 0.000000
0.000000 0.000000 0.000000
0.000000 0.000000 0.000000
0.000000 0.000000 0.000000
0.000000 0.000000 0.000000
61.387001 -48.730999 10.189000
0.000000 0.000000 0.000000
0.000000 0.000000 0.000000
61.125000 -48.707001 11.566000
0.000000 0.000000 0.000000
0.000000 0.000000 0.000000
61.032001 -47.778000 10.150000
61.250999 -48.839001 12.967000
0.000000 0.000000 0.000000
61.145000 -48.035000 11.585000
61.881001 -49.611000 14.485000
0.000000 0.000000 0.000000
61.456001 -47.432999 10.233000
60.986000 -47.942001 12.912000
0.000000 0.000000 0.000000
61.183998 -47.388000 11.600000
61.645000 -48.710999 14.426000
0.000000 0.000000 0.000000
62.202999 -47.326000 10.375000
57.643002 -44.664001 12.199000
0.000000 0.000000 0.000000
61.813000 -47.189999 11.720000
61.282001 -47.726002 14.330000
0.000000 0.000000 0.000000
62.750000 -47.063999 10.477000
57.390999 -43.823002 12.146000
61.166000 -47.800999 15.780000
62.119999 -46.738998 11.784000
61.397999 -47.118000 14.340000
63.820000 -50.264999 18.049000
62.912998 -46.506001 10.508000
57.699001 -43.419998 12.204000
0.000000 0.000000 0.000000
62.418999 -46.284000 11.839000
61.856998 -46.770000 14.434000
0.000000 0.000000 0.000000
61.487000 -44.790001 10.278000
58.471001 -43.355000 12.354000
61.886002 -46.938000 15.909000
62.750999 -45.848999 11.894000
57.426998 -42.773998 13.379000
61.740002 -47.174000 17.391001
60.405998 -43.362999 10.099000
0.000000 0.000000 0.000000
61.855999 -46.209999 15.876000
60.209000 -43.341000 11.410000
0.000000 0.000000 0.000000
62.160000 -46.770000 17.462999
61.870998 -43.757999 10.339000
60.153999 -43.284000 12.682000
0.000000 0.000000 0.000000
63.199001 -44.820000 11.967000
0.000000 0.000000 0.000000
61.977001 -45.915001 17.372000
62.485001 -43.539001 10.438000
62.688999 -44.435001 13.199000
59.930000 -43.421001 15.313000
63.120998 -44.094002 11.937000
61.183998 -43.546001 14.183000
60.460999 -44.104000 16.903000
63.264999 -43.421001 10.567000
63.067001 -44.025002 13.262000
61.403999 -43.804001 15.657000
63.195999 -43.481998 11.937000
62.929001 -44.105000 14.558000
0.000000 0.000000 0.000000
63.151001 -42.688999 10.536000
63.624001 -43.736000 13.352000
63.166000 -44.368000 16.066999
63.481998 -43.013000 11.979000
63.522999 -43.834000 14.668000
0.000000 0.000000 0.000000
64.198997 -42.740002 10.700000
0.000000 0.000000 0.000000
63.924000 -44.199001 16.214001
63.312000 -42.240002 11.925000
0.000000 0.000000 0.000000
58.029999 -40.369999 16.086000
64.138000 -42.043999 10.681000
67.557999 -45.020000 14.127000
59.188999 -40.278999 14.976000
69.498001 -45.654999 13.068000
0.000000 0.000000 0.000000
58.376999 -39.964001 16.128000
65.307999 -42.150002 10.858000
67.406998 -44.217999 14.062000
59.308998 -39.726002 14.965000
0.000000 0.000000 0.000000
0.000000 0.000000 0.000000
58.584000 -39.462002 16.138000
62.592999 -39.771999 10.390000
67.594002 -43.646999 14.069000
59.563999 -39.258999 14.982000
62.464001 -39.757999 11.700000
71.710999 -46.449001 16.392000
59.778999 -39.618999 16.414000
60.002998 -37.527000 9.947000
62.402000 -39.653999 12.960000
69.363998 -44.981998 17.399000
59.919998 -37.539001 11.199000
62.257999 -39.683998 14.193000
0.000000 0.000000 0.000000
67.040001 -41.264000 11.089000
59.887001 -37.445999 12.403000
66.079002 -42.160999 16.524000
67.136002 -41.388000 12.523000
59.706001 -37.442001 13.575000
0.000000 0.000000 0.000000
67.115997 -40.655998 11.079000
68.075996 -41.884998 14.062000
59.580002 -37.391998 14.848000
67.268997 -40.800999 12.514000
71.790001 -44.286999 16.271000
69.240997 -43.672001 18.820000
66.998001 -39.931000 11.039000
68.677002 -41.567001 14.151000
72.277000 -44.618999 17.955000
63.164001 -37.694000 11.720000
71.992996 -43.687000 16.268000
58.176998 -36.082001 15.754000
63.595001 -37.287998 10.451000
63.875999 -38.027000 13.121000
0.000000 0.000000 0.000000
0.000000 0.000000 0.000000
72.462997 -43.243999 16.326000
73.596001 -44.882000 19.858000
69.490997 -40.082001 11.393000
63.719002 -37.312000 13.050000
71.764000 -42.835999 17.707001
61.512001 -35.511002 11.352000
74.021004 -43.437000 16.620001
73.725998 -44.199001 19.823999
66.379997 -37.654999 10.858000
63.613998 -36.626999 12.992000
0.000000 0.000000 0.000000
61.243999 -34.771999 11.271000
63.166000 -36.448002 14.137000
74.973000 -44.179001 20.080999
64.480003 -35.967999 10.516000
65.514000 -37.085999 13.336000
0.000000 0.000000 0.000000
0.000000 0.000000 0.000000
63.067001 -35.771000 14.071000
0.000000 0.000000 0.000000
71.514999 -39.226002 11.631000
0.000000 0.000000 0.000000
115.004997 -65.203003 28.079000
0.000000 0.000000 0.000000
63.485001 -35.390999 14.112000
0.000000 0.000000 0.000000
71.163002 -38.370998 11.543000
0.000000 0.000000 0.000000
0.000000 0.000000 0.000000
0.000000 0.000000 0.000000
62.148998 -34.051998 13.768000
0.000000 0.000000 0.000000
71.358002 -37.816002 11.537000
64.129997 -34.472000 12.927000
116.737000 -63.907001 28.301001
0.000000 0.000000 0.000000
62.855999 -33.838001 13.878000
0.000000 0.000000 0.000000
63.949001 -33.307999 10.308000
64.195999 -33.909000 12.897000
0.000000 0.000000 0.000000
71.661003 -37.323002 12.983000
63.229000 -33.438999 13.908000
0.000000 0.000000 0.000000
63.036999 -32.258999 10.131000
64.478996 -33.458000 12.911000
0.000000 0.000000 0.000000
64.485001 -32.999001 11.644000
65.382004 -33.965000 14.330000
0.000000 0.000000 0.000000
65.134003 -32.744999 10.432000
64.304001 -32.772999 12.828000
0.000000 0.000000 0.000000
70.250999 -35.308998 12.645000
69.871002 -35.644001 15.261000
0.000000 0.000000 0.000000
65.179001 -32.186001 10.405000
64.155998 -32.113998 12.754000
0.000000 0.000000 0.000000
64.055000 -31.615999 11.487000
69.720001 -34.923000 15.169000
0.000000 0.000000 0.000000
65.697998 -31.858000 10.455000
63.900002 -31.408001 12.658000
70.303001 -35.151001 16.722000
64.042000 -31.040001 11.445000
69.905998 -34.377998 15.153000
0.000000 0.000000 0.000000
66.613998 -31.714001 10.561000
64.227997 -30.985001 12.676000
121.061996 -59.397999 28.684000
64.638000 -30.752001 11.513000
69.914001 -33.748001 15.098000
0.000000 0.000000 0.000000
66.028000 -30.861000 10.432000
65.821999 -31.167999 12.943000
0.000000 0.000000 0.000000
66.318001 -30.965000 11.767000
70.208000 -33.249001 15.104000
122.120003 -58.910999 31.337000
66.330002 -30.423000 10.445000
66.431999 -30.870001 13.015000
122.196999 -57.729000 28.730000
66.290001 -30.375000 11.720000
70.317001 -32.674000 15.070000
0.000000 0.000000 0.000000
0.000000 0.000000 0.000000
66.598000 -30.353001 12.999000
71.222000 -32.997002 16.680000
66.967003 -30.101000 11.798000
70.809998 -32.277000 15.119000
0.000000 0.000000 0.000000
0.000000 0.000000 0.000000
66.877998 -29.899000 13.005000
118.121002 -53.667000 27.556000
68.120003 -30.030001 11.955000
0.000000 0.000000 0.000000
0.000000 0.000000 0.000000
81.888000 -35.456001 12.755000
0.000000 0.000000 0.000000
0.000000 0.000000 0.000000
0.000000 0.000000 0.000000
0.000000 0.000000 0.000000
0.000000 0.000000 0.000000
81.710999 -34.688000 12.678000
0.000000 0.000000 0.000000
0.000000 0.000000 0.000000
80.362000 -34.055000 14.001000
0.000000 0.000000 0.000000
0.000000 0.000000 0.000000
0.000000 0.000000 0.000000
111.415001 -46.925999 21.422001
0.000000 0.000000 0.000000
69.139999 -28.714001 11.998000
0.000000 0.000000 0.000000
77.935997 -33.361000 19.525999
0.000000 0.000000 0.000000
0.000000 0.000000 0.000000
78.809998 -33.030998 18.101999
69.475998 -28.273001 12.011000
69.834000 -28.789000 14.627000
80.795998 -33.876999 20.163000
71.172997 -28.434000 10.919000
