# This PCD file was generated using the MATLAB® pcwrite function
# from Computer Vision Toolbox®.
# .PCD v.7 - Point Cloud Data file format
VERSION .7
FIELDS x y z
SIZE 4 4 4
TYPE F F F
COUNT 1 1 1
WIDTH 1644
HEIGHT 1
VIEWPOINT 0 0 0 1 0 0 0
POINTS 1644
DATA ascii
19.146000 2.271000 -0.159000
19.875999 2.388000 0.471000
18.931000 2.266000 -0.459000
19.511000 2.366000 0.138000
20.486000 2.521000 0.827000
18.594999 2.267000 -0.761000
19.122999 2.365000 -0.158000
19.865999 2.488000 0.473000
18.922001 2.359000 -0.457000
19.521999 2.466000 0.140000
20.539000 2.632000 0.832000
18.573000 2.357000 -0.759000
19.146999 2.464000 -0.156000
19.906000 2.593000 0.476000
18.923000 2.455000 -0.455000
19.506001 2.563000 0.143000
20.487000 2.729000 0.833000
18.587999 2.452000 -0.759000
19.167000 2.563000 -0.154000
19.948999 2.700000 0.480000
18.886000 2.545000 -0.453000
19.521999 2.663000 0.145000
20.577999 2.846000 0.839000
18.566999 2.542000 -0.756000
19.158001 2.659000 -0.152000
20.099001 2.821000 0.486000
18.903999 2.642000 -0.451000
19.530001 2.763000 0.147000
20.746000 2.975000 0.849000
18.566000 2.635000 -0.755000
19.143000 2.753000 -0.150000
20.360001 2.962000 0.495000
18.924999 2.740000 -0.450000
19.555000 2.866000 0.150000
20.926001 3.107000 0.859000
18.563000 2.728000 -0.753000
19.174000 2.854000 -0.148000
20.447001 3.079000 0.500000
18.909000 2.834000 -0.448000
19.563999 2.966000 0.152000
21.024000 3.230000 0.866000
18.587000 2.825000 -0.753000
19.208000 2.956000 -0.146000
20.504999 3.192000 0.504000
18.902000 2.927000 -0.446000
19.631001 3.077000 0.155000
21.105000 3.351000 0.873000
18.570000 2.916000 -0.750000
19.250000 3.060000 -0.145000
20.549999 3.304000 0.508000
18.909000 3.025000 -0.445000
19.716000 3.190000 0.158000
21.159000 3.467000 0.879000
18.582001 3.012000 -0.750000
19.296000 3.166000 -0.143000
20.615000 3.419000 0.513000
18.895000 3.117000 -0.443000
19.999001 3.338000 0.163000
21.240000 3.590000 0.885000
18.573999 3.105000 -0.747000
19.311001 3.266000 -0.141000
20.672001 3.535000 0.517000
18.862000 3.208000 -0.440000
20.066000 3.452000 0.166000
21.235001 3.699000 0.889000
18.530001 3.191000 -0.744000
19.271999 3.358000 -0.139000
20.745001 3.654000 0.522000
18.879999 3.307000 -0.439000
20.194000 3.576000 0.169000
21.323999 3.824000 0.896000
18.532000 3.286000 -0.743000
19.268000 3.456000 -0.136000
20.823000 3.774000 0.527000
18.914000 3.409000 -0.438000
20.218000 3.684000 0.172000
21.385000 3.946000 0.902000
18.521999 3.378000 -0.741000
19.415001 3.581000 -0.135000
20.907000 3.898000 0.532000
18.930000 3.509000 -0.436000
20.305000 3.805000 0.176000
21.483999 4.076000 0.910000
18.503000 3.468000 -0.739000
19.645000 3.725000 -0.135000
20.938999 4.012000 0.536000
18.865000 3.593000 -0.433000
20.372000 3.922000 0.179000
21.521000 4.194000 0.915000
18.497000 3.562000 -0.737000
19.747999 3.846000 -0.133000
20.985001 4.129000 0.540000
18.820999 3.681000 -0.430000
20.430000 4.039000 0.182000
21.358000 4.274000 0.911000
18.438000 3.645000 -0.733000
19.797001 3.957000 -0.131000
21.014000 4.244000 0.544000
18.923000 3.798000 -0.430000
20.534000 4.165000 0.186000
21.187000 4.349000 0.908000
18.395000 3.730000 -0.730000
19.858999 4.072000 -0.129000
21.049000 4.361000 0.548000
19.087000 3.929000 -0.432000
20.551001 4.275000 0.189000
20.997999 4.421000 0.904000
18.405001 3.828000 -0.729000
19.955999 4.195000 -0.127000
20.966000 4.452000 0.550000
19.172001 4.046000 -0.432000
20.610001 4.395000 0.192000
20.827000 4.494000 0.900000
18.493000 3.941000 -0.731000
20.003000 4.308000 -0.125000
20.791000 4.524000 0.548000
19.240000 4.160000 -0.432000
20.684000 4.517000 0.196000
20.665001 4.567000 0.896000
18.617001 4.063000 -0.734000
20.046000 4.422000 -0.123000
20.605000 4.592000 0.547000
19.236000 4.258000 -0.430000
20.598000 4.606000 0.197000
20.478001 4.634000 0.892000
18.663000 4.170000 -0.735000
20.080000 4.533000 -0.121000
20.440001 4.661000 0.545000
19.281000 4.368000 -0.429000
20.429001 4.676000 0.199000
20.301001 4.700000 0.888000
18.716000 4.279000 -0.736000
20.129999 4.650000 -0.119000
20.264999 4.728000 0.543000
19.396999 4.496000 -0.430000
20.261999 4.743000 0.200000
20.115999 4.764000 0.883000
18.780001 4.391000 -0.737000
20.170000 4.765000 -0.117000
20.104000 4.797000 0.543000
19.556000 4.634000 -0.431000
20.084000 4.807000 0.201000
19.968000 4.835000 0.881000
18.789000 4.490000 -0.736000
20.052000 4.842000 -0.114000
19.924000 4.859000 0.541000
19.608999 4.749000 -0.431000
19.919001 4.873000 0.202000
19.802999 4.900000 0.877000
18.865999 4.607000 -0.738000
19.893000 4.908000 -0.111000
19.773001 4.927000 0.540000
19.618000 4.855000 -0.429000
19.766001 4.939000 0.203000
19.646000 4.966000 0.873000
18.985001 4.736000 -0.741000
19.728001 4.972000 -0.108000
19.612000 4.990000 0.538000
19.646000 4.964000 -0.428000
19.604000 5.003000 0.204000
19.492001 5.031000 0.870000
19.097000 4.863000 -0.744000
19.566999 5.034000 -0.105000
19.443001 5.051000 0.537000
19.559999 5.046000 -0.425000
19.450001 5.067000 0.205000
19.329000 5.092000 0.867000
19.146999 4.978000 -0.745000
19.412001 5.097000 -0.101000
19.296000 5.116000 0.536000
19.400999 5.107000 -0.420000
19.299000 5.130000 0.206000
19.167999 5.153000 0.862000
19.156000 5.081000 -0.744000
19.253000 5.157000 -0.099000
19.139999 5.177000 0.534000
19.256001 5.171000 -0.415000
19.135000 5.189000 0.206000
19.013000 5.214000 0.859000
19.176001 5.187000 -0.743000
19.100000 5.218000 -0.096000
18.983000 5.236000 0.533000
19.101999 5.231000 -0.410000
18.986000 5.250000 0.207000
18.985001 5.308000 0.861000
19.063000 5.258000 -0.738000
18.947001 5.277000 -0.093000
18.951000 5.329000 0.535000
18.948000 5.289000 -0.405000
18.920000 5.332000 0.209000
19.034000 5.425000 0.866000
18.913000 5.318000 -0.731000
18.868999 5.356000 -0.091000
19.007999 5.448000 0.539000
18.858999 5.365000 -0.402000
18.964001 5.447000 0.211000
19.077999 5.541000 0.872000
18.815001 5.390000 -0.727000
18.922001 5.473000 -0.090000
19.052000 5.564000 0.544000
18.893999 5.477000 -0.402000
19.002001 5.560000 0.214000
19.129999 5.660000 0.878000
18.857000 5.503000 -0.728000
18.979000 5.592000 -0.088000
19.087999 5.677000 0.547000
18.938999 5.591000 -0.401000
19.056000 5.679000 0.217000
19.167000 5.776000 0.883000
18.896000 5.616000 -0.728000
19.016001 5.705000 -0.086000
19.136000 5.796000 0.551000
18.989000 5.708000 -0.401000
19.099001 5.796000 0.219000
19.223000 5.898000 0.888000
18.964001 5.738000 -0.730000
19.048000 5.818000 -0.085000
19.181000 5.915000 0.556000
19.028000 5.822000 -0.400000
19.139999 5.911000 0.222000
19.271000 6.018000 0.894000
19.002001 5.853000 -0.732000
19.112000 5.941000 -0.083000
19.235001 6.036000 0.560000
19.077000 5.941000 -0.401000
19.193001 6.033000 0.225000
19.351999 6.151000 0.901000
19.049000 5.970000 -0.733000
19.157000 6.059000 -0.082000
19.275999 6.155000 0.563000
19.129999 6.062000 -0.401000
19.236000 6.151000 0.228000
22.731001 7.349000 1.062000
19.094000 6.087000 -0.734000
19.212999 6.182000 -0.082000
23.063999 7.492000 0.677000
19.174999 6.180000 -0.401000
23.080000 7.508000 0.275000
22.270000 7.324000 1.044000
19.136000 6.206000 -0.736000
23.037001 7.539000 -0.096000
22.865000 7.553000 0.674000
23.032000 7.550000 -0.481000
22.882000 7.569000 0.275000
22.028999 7.368000 1.036000
22.990000 7.580000 -0.884000
22.818001 7.592000 -0.093000
22.437000 7.536000 0.664000
22.843000 7.613000 -0.476000
22.702999 7.635000 0.275000
22.334000 7.594000 1.054000
22.778000 7.635000 -0.875000
22.684000 7.674000 -0.092000
21.920000 7.485000 0.652000
22.649000 7.673000 -0.471000
22.562000 7.713000 0.275000
22.403000 7.743000 1.061000
22.642000 7.715000 -0.870000
22.503000 7.736000 -0.090000
21.707001 7.532000 0.648000
22.504999 7.749000 -0.468000
22.364000 7.769000 0.275000
22.201000 7.796000 1.054000
22.461000 7.776000 -0.864000
22.306000 7.792000 -0.088000
21.877001 7.714000 0.655000
22.278999 7.794000 -0.463000
21.558001 7.609000 0.266000
22.083000 7.880000 1.051000
22.320999 7.852000 -0.858000
22.184999 7.874000 -0.087000
22.018999 7.887000 0.661000
22.094999 7.852000 -0.459000
21.413000 7.678000 0.265000
21.896999 7.937000 1.046000
22.150999 7.914000 -0.852000
21.980000 7.923000 -0.085000
21.907000 7.971000 0.661000
21.924999 7.915000 -0.456000
21.323000 7.766000 0.266000
21.752001 8.007000 1.042000
21.965000 7.971000 -0.846000
21.191000 7.758000 -0.081000
21.709999 8.022000 0.656000
21.681999 7.947000 -0.451000
21.736000 8.044000 0.272000
21.587999 8.082000 1.036000
21.843000 8.061000 -0.842000
21.024000 7.834000 -0.080000
21.511999 8.094000 0.652000
21.473000 8.022000 -0.447000
21.537001 8.123000 0.271000
21.364000 8.151000 1.028000
21.611000 8.132000 -0.834000
21.049999 7.996000 -0.080000
21.298000 8.172000 0.648000
20.844000 7.940000 -0.434000
21.323000 8.200000 0.270000
21.150000 8.226000 1.021000
21.414000 8.215000 -0.829000
21.238001 8.225000 -0.081000
21.099001 8.252000 0.643000
20.611000 8.001000 -0.430000
21.086000 8.264000 0.268000
20.945000 8.303000 1.015000
20.739000 8.109000 -0.804000
21.042999 8.306000 -0.080000
20.941000 8.346000 0.640000
20.993000 8.305000 -0.440000
19.292000 7.705000 0.244000
19.172001 7.744000 0.930000
19.381001 7.721000 -0.754000
19.271000 7.748000 -0.073000
19.152000 7.776000 0.587000
19.256001 7.761000 -0.404000
19.150000 7.791000 0.243000
18.996000 7.816000 0.923000
19.202999 7.793000 -0.750000
19.087999 7.818000 -0.074000
18.975000 7.848000 0.582000
19.084999 7.834000 -0.402000
18.966999 7.858000 0.241000
19.174000 8.034000 0.935000
19.028999 7.864000 -0.745000
19.230000 8.020000 -0.075000
19.219999 8.093000 0.590000
19.281000 8.059000 -0.409000
19.259001 8.125000 0.244000
19.243000 8.210000 0.939000
19.351000 8.141000 -0.761000
19.292000 8.191000 -0.077000
19.295000 8.271000 0.593000
19.339001 8.229000 -0.412000
19.348000 8.309000 0.245000
19.313000 8.387000 0.943000
19.415001 8.315000 -0.768000
19.368999 8.371000 -0.080000
19.372000 8.453000 0.595000
19.445000 8.420000 -0.417000
19.409000 8.482000 0.244000
19.386000 8.567000 0.948000
19.490999 8.495000 -0.774000
19.455999 8.555000 -0.082000
19.448000 8.634000 0.597000
19.524000 8.603000 -0.423000
19.478001 8.661000 0.243000
19.375000 8.713000 0.947000
19.572001 8.678000 -0.782000
19.476999 8.713000 -0.084000
19.353001 8.740000 0.594000
19.452999 8.721000 -0.424000
19.343000 8.749000 0.239000
19.473000 8.906000 0.952000
19.415001 8.758000 -0.781000
19.556999 8.900000 -0.088000
19.222000 8.830000 0.588000
19.518999 8.899000 -0.430000
19.412001 8.930000 0.239000
19.278999 8.968000 0.943000
19.046000 8.737000 -0.771000
19.406000 8.980000 -0.091000
19.141001 8.941000 0.584000
19.340000 8.966000 -0.431000
19.295000 9.026000 0.234000
19.142000 9.054000 0.935000
18.863001 8.798000 -0.769000
19.238001 9.051000 -0.093000
18.974001 9.011000 0.578000
19.188000 9.045000 -0.432000
19.100000 9.082000 0.228000
18.940001 9.106000 0.924000
19.032000 9.025000 -0.783000
19.035999 9.104000 -0.098000
18.796000 9.074000 0.569000
19.049999 9.127000 -0.434000
18.902000 9.136000 0.223000
18.798000 9.186000 0.916000
18.969999 9.143000 -0.786000
18.910000 9.191000 -0.102000
18.667000 9.158000 0.562000
18.872999 9.190000 -0.437000
18.785000 9.227000 0.217000
18.614000 9.244000 0.904000
18.820000 9.217000 -0.787000
18.715000 9.243000 -0.105000
18.482000 9.213000 0.554000
18.738001 9.271000 -0.439000
18.587000 9.275000 0.210000
18.437000 9.302000 0.893000
18.610001 9.261000 -0.786000
18.570000 9.319000 -0.110000
18.358000 9.297000 0.546000
18.546000 9.321000 -0.441000
18.461000 9.358000 0.205000
18.330999 9.394000 0.886000
18.388000 9.295000 -0.784000
18.399000 9.378000 -0.115000
18.181000 9.352000 0.537000
18.417999 9.403000 -0.446000
18.282000 9.414000 0.197000
18.121000 9.432000 0.872000
18.250999 9.370000 -0.786000
18.236000 9.439000 -0.120000
18.066999 9.437000 0.530000
18.225000 9.450000 -0.448000
18.139999 9.485000 0.189000
17.983999 9.505000 0.861000
18.054001 9.413000 -0.787000
18.093000 9.510000 -0.127000
17.886999 9.487000 0.518000
18.100000 9.528000 -0.453000
17.965000 9.537000 0.182000
17.823000 9.563000 0.850000
17.910000 9.481000 -0.790000
17.962000 9.585000 -0.133000
17.791000 9.579000 0.510000
17.919001 9.577000 -0.458000
17.844999 9.617000 0.173000
17.674999 9.627000 0.838000
17.740000 9.533000 -0.792000
17.771000 9.626000 -0.139000
17.587000 9.611000 0.499000
17.792000 9.653000 -0.463000
17.643999 9.650000 0.164000
17.542999 9.697000 0.826000
17.610001 9.606000 -0.797000
17.656000 9.706000 -0.148000
17.473000 9.691000 0.488000
17.613001 9.697000 -0.468000
17.544001 9.738000 0.156000
17.388000 9.754000 0.814000
17.474001 9.673000 -0.801000
17.474001 9.748000 -0.155000
17.327000 9.750000 0.477000
17.486000 9.769000 -0.476000
17.349001 9.772000 0.145000
17.250000 9.818000 0.800000
17.350000 9.745000 -0.807000
17.350000 9.820000 -0.163000
17.170000 9.802000 0.466000
17.318001 9.816000 -0.481000
17.226999 9.843000 0.135000
17.077999 9.859000 0.785000
17.233999 9.821000 -0.815000
17.183001 9.867000 -0.172000
17.068001 9.885000 0.454000
17.181999 9.879000 -0.489000
17.100000 9.910000 0.126000
16.959999 9.930000 0.773000
17.072001 9.869000 -0.819000
17.045000 9.926000 -0.181000
16.892000 9.921000 0.441000
17.066000 9.953000 -0.498000
16.924999 9.948000 0.113000
16.820999 9.987000 0.759000
16.959999 9.943000 -0.826000
16.924000 9.994000 -0.191000
16.693001 9.941000 0.427000
16.886999 9.988000 -0.505000
16.839001 10.036000 0.102000
16.680000 10.042000 0.743000
16.789000 9.982000 -0.833000
16.740999 10.025000 -0.201000
16.614000 10.031000 0.415000
16.775999 10.060000 -0.514000
16.681999 10.079000 0.091000
16.555000 10.104000 0.729000
16.639000 10.031000 -0.839000
16.639999 10.102000 -0.212000
16.431999 10.058000 0.399000
16.650000 10.123000 -0.525000
16.511000 10.114000 0.077000
16.441999 10.171000 0.714000
16.539000 10.107000 -0.849000
16.523001 10.168000 -0.223000
16.306999 10.117000 0.386000
16.483000 10.158000 -0.534000
16.388000 10.174000 0.064000
16.246000 10.185000 0.694000
16.402000 10.161000 -0.858000
16.370001 10.211000 -0.236000
16.190001 10.178000 0.372000
16.337999 10.204000 -0.543000
16.268000 10.235000 0.052000
16.113001 10.236000 0.678000
16.273001 10.216000 -0.867000
16.232000 10.259000 -0.248000
16.058001 10.229000 0.355000
16.240000 10.279000 -0.556000
16.159000 10.301000 0.037000
16.018000 10.309000 0.663000
16.138000 10.267000 -0.876000
16.091999 10.305000 -0.260000
15.920000 10.274000 0.340000
16.112000 10.333000 -0.568000
15.993000 10.328000 0.022000
15.916000 10.377000 0.645000
16.035000 10.338000 -0.889000
15.992000 10.376000 -0.275000
15.790000 10.322000 0.324000
15.962000 10.370000 -0.579000
15.875000 10.385000 0.008000
15.760000 10.407000 0.627000
15.922000 10.398000 -0.901000
15.852000 10.417000 -0.288000
15.267000 10.108000 0.298000
15.347000 10.100000 -0.574000
15.262000 10.112000 -0.007000
15.153000 10.132000 0.590000
15.296000 10.118000 -0.883000
15.231000 10.137000 -0.293000
15.208000 10.196000 0.283000
15.244000 10.160000 -0.588000
15.268000 10.243000 -0.023000
15.282000 10.347000 0.579000
15.392000 10.313000 -0.908000
15.335000 10.335000 -0.313000
15.311000 10.393000 0.270000
15.398000 10.392000 -0.611000
15.316000 10.403000 -0.039000
15.409000 10.561000 0.570000
15.425000 10.465000 -0.930000
15.475000 10.559000 -0.334000
15.268000 10.492000 0.252000
15.500000 10.592000 -0.636000
15.382000 10.577000 -0.058000
15.305000 10.617000 0.551000
15.402000 10.579000 -0.949000
15.372000 10.618000 -0.350000
15.161000 10.545000 0.234000
15.368000 10.631000 -0.651000
15.256000 10.618000 -0.076000
15.196000 10.668000 0.529000
15.291000 10.634000 -0.965000
15.252000 10.663000 -0.367000
15.050000 10.592000 0.215000
15.232000 10.666000 -0.665000
15.143000 10.666000 -0.093000
15.094000 10.723000 0.509000
15.151000 10.665000 -0.978000
15.155000 10.722000 -0.385000
14.963000 10.656000 0.194000
15.114000 10.710000 -0.682000
15.044000 10.722000 -0.113000
14.987000 10.770000 0.488000
15.033000 10.709000 -0.992000
15.037000 10.765000 -0.402000
14.864000 10.709000 0.175000
15.000000 10.756000 -0.699000
14.939000 10.770000 -0.133000
14.852000 10.795000 0.464000
14.895000 10.738000 -1.008000
14.892000 10.786000 -0.421000
14.782000 10.772000 0.154000
14.896000 10.806000 -0.716000
14.832000 10.816000 -0.152000
14.737000 10.834000 0.442000
14.763000 10.767000 -1.023000
14.783000 10.830000 -0.441000
14.694000 10.829000 0.131000
14.794000 10.857000 -0.736000
14.725000 10.861000 -0.174000
14.636000 10.878000 0.419000
14.639000 10.800000 -1.038000
14.687000 10.881000 -0.460000
14.596000 10.876000 0.110000
14.692000 10.904000 -0.755000
14.629000 10.910000 -0.195000
14.552000 10.935000 0.395000
14.505000 10.825000 -1.055000
14.558000 10.907000 -0.481000
14.506000 10.927000 0.087000
14.576000 10.940000 -0.773000
14.515000 10.943000 -0.216000
14.457000 10.981000 0.371000
14.025000 10.584000 -1.046000
14.463000 10.955000 -0.502000
14.403000 10.967000 0.063000
14.470000 10.981000 -0.795000
14.419000 10.990000 -0.240000
14.358000 11.019000 0.347000
14.026000 10.702000 -1.072000
14.358000 10.994000 -0.523000
14.306000 11.008000 0.040000
14.378000 11.029000 -0.816000
14.318000 11.028000 -0.263000
14.262000 11.060000 0.320000
14.101000 10.878000 -1.106000
14.281000 11.051000 -0.547000
14.221000 11.055000 0.015000
14.273000 11.066000 -0.837000
14.226000 11.072000 -0.286000
14.170000 11.101000 0.295000
14.120000 11.009000 -1.136000
14.197000 11.100000 -0.571000
14.116000 11.086000 -0.010000
14.169000 11.101000 -0.859000
14.125000 11.105000 -0.311000
14.066000 11.129000 0.268000
14.047000 11.068000 -1.158000
14.107000 11.144000 -0.594000
14.046000 11.140000 -0.035000
14.069000 11.137000 -0.882000
14.023000 11.136000 -0.335000
13.965000 11.156000 0.240000
13.974000 11.126000 -1.183000
14.011000 11.180000 -0.619000
13.960000 11.181000 -0.061000
13.978000 11.177000 -0.905000
13.934000 11.174000 -0.360000
13.875000 11.190000 0.213000
13.919000 11.195000 -1.210000
13.922000 11.218000 -0.644000
13.875000 11.220000 -0.089000
13.893000 11.220000 -0.930000
13.870000 11.230000 -0.388000
13.763000 11.203000 0.185000
13.329000 10.828000 -1.188000
13.832000 11.254000 -0.668000
13.786000 11.251000 -0.116000
13.825000 11.273000 -0.957000
13.797000 11.276000 -0.415000
13.641000 11.205000 0.155000
13.298000 10.910000 -1.217000
13.729000 11.276000 -0.695000
13.691000 11.276000 -0.143000
13.743000 11.313000 -0.982000
13.695000 11.295000 -0.441000
13.519000 11.203000 0.126000
13.471000 11.158000 -1.266000
13.628000 11.297000 -0.721000
13.606000 11.306000 -0.173000
13.644000 11.338000 -1.008000
13.593000 11.312000 -0.469000
13.428000 11.223000 0.097000
13.566000 11.342000 -1.307000
13.563000 11.344000 -0.748000
13.554000 11.360000 -0.202000
13.551000 11.363000 -1.034000
13.520000 11.350000 -0.498000
13.387000 11.283000 0.066000
13.498000 11.389000 -1.336000
13.507000 11.397000 -0.779000
13.480000 11.393000 -0.231000
13.470000 11.395000 -1.061000
13.466000 11.400000 -0.527000
13.364000 11.355000 0.036000
13.444000 11.446000 -1.366000
13.418000 11.418000 -0.806000
13.391000 11.410000 -0.262000
13.414000 11.447000 -1.092000
13.391000 11.431000 -0.558000
13.347000 11.430000 0.005000
13.352000 11.467000 -1.391000
13.324000 11.432000 -0.834000
13.308000 11.429000 -0.293000
13.316000 11.458000 -1.118000
13.306000 11.449000 -0.587000
13.267000 11.447000 -0.027000
13.263000 11.488000 -1.419000
13.275000 11.483000 -0.866000
13.262000 11.476000 -0.324000
13.006000 11.283000 -1.126000
13.227000 11.469000 -0.617000
13.190000 11.464000 -0.059000
13.190000 11.519000 -1.448000
13.200000 11.507000 -0.896000
13.177000 11.487000 -0.356000
12.928000 11.306000 -1.156000
13.188000 11.522000 -0.651000
13.141000 11.502000 -0.091000
13.146000 11.573000 -1.480000
12.725000 11.176000 -0.898000
13.120000 11.518000 -0.389000
12.961000 11.420000 -1.195000
12.645000 11.127000 -0.658000
13.072000 11.519000 -0.125000
13.046000 11.575000 -1.508000
12.704000 11.240000 -0.932000
13.057000 11.541000 -0.421000
12.913000 11.462000 -1.227000
12.577000 11.143000 -0.688000
13.040000 11.564000 -0.159000
12.968000 11.592000 -1.538000
12.581000 11.209000 -0.959000
12.999000 11.565000 -0.455000
12.881000 11.516000 -1.263000
12.517000 11.163000 -0.719000
12.959000 11.563000 -0.192000
12.952000 11.661000 -1.574000
12.802000 11.481000 -1.012000
12.921000 11.566000 -0.488000
12.938000 11.646000 -1.306000
12.464000 11.186000 -0.752000
12.936000 11.610000 -0.228000
12.854000 11.654000 -1.603000
12.897000 11.640000 -1.057000
12.877000 11.595000 -0.522000
12.860000 11.651000 -1.337000
12.407000 11.202000 -0.784000
12.861000 11.607000 -0.263000
12.821000 11.701000 -1.639000
12.838000 11.659000 -1.092000
12.742000 11.538000 -0.554000
12.812000 11.680000 -1.372000
12.802000 11.625000 -0.847000
12.849000 11.656000 -0.298000
12.759000 11.720000 -1.671000
12.786000 11.679000 -1.125000
12.792000 11.644000 -0.593000
12.744000 11.688000 -1.404000
12.783000 11.670000 -0.885000
12.773000 11.644000 -0.334000
12.711000 11.746000 -1.707000
12.699000 11.663000 -1.156000
12.759000 11.671000 -0.629000
12.721000 11.732000 -1.441000
12.755000 11.704000 -0.920000
12.747000 11.672000 -0.371000
12.667000 11.772000 -1.742000
12.654000 11.682000 -1.193000
12.730000 11.698000 -0.667000
12.661000 11.739000 -1.476000
12.695000 11.705000 -0.955000
12.725000 11.701000 -0.407000
8.905000 8.321000 -1.253000
12.543000 11.635000 -1.222000
12.680000 11.702000 -0.702000
12.627000 11.765000 -1.513000
12.686000 11.748000 -0.995000
12.676000 11.701000 -0.445000
8.866000 8.327000 -1.278000
12.529000 11.673000 -1.259000
12.664000 11.733000 -0.739000
12.592000 11.787000 -1.549000
12.620000 11.734000 -1.029000
12.661000 11.727000 -0.483000
8.830000 8.333000 -1.303000
12.567000 11.758000 -1.304000
12.647000 11.760000 -0.779000
8.845000 8.315000 -1.118000
12.599000 11.758000 -1.066000
12.642000 11.746000 -0.520000
8.807000 8.347000 -1.329000
12.533000 11.771000 -1.341000
12.597000 11.751000 -0.815000
8.815000 8.319000 -1.143000
12.575000 11.775000 -1.105000
12.598000 11.737000 -0.558000
8.849000 8.422000 -1.366000
12.523000 11.801000 -1.380000
12.584000 11.771000 -0.853000
8.789000 8.325000 -1.168000
12.544000 11.781000 -1.142000
12.581000 11.750000 -0.596000
8.903000 8.505000 -1.405000
12.509000 11.825000 -1.421000
12.575000 11.791000 -0.893000
8.772000 8.335000 -1.196000
12.503000 11.772000 -1.178000
12.571000 11.764000 -0.634000
8.889000 8.519000 -1.433000
12.478000 11.826000 -1.458000
12.551000 11.793000 -0.931000
8.760000 8.348000 -1.224000
12.446000 11.745000 -1.214000
12.574000 11.785000 -0.675000
8.883000 8.539000 -1.463000
8.793000 8.353000 -1.056000
12.520000 11.785000 -0.967000
8.748000 8.356000 -1.251000
12.361000 11.686000 -1.245000
12.567000 11.793000 -0.714000
8.864000 8.542000 -1.491000
8.782000 8.359000 -1.084000
12.503000 11.784000 -1.007000
8.753000 8.379000 -1.282000
12.397000 11.737000 -1.288000
12.549000 11.787000 -0.751000
8.859000 8.556000 -1.520000
8.768000 8.358000 -1.111000
12.502000 11.794000 -1.047000
8.763000 8.402000 -1.312000
12.461000 11.811000 -1.336000
12.540000 11.784000 -0.791000
8.842000 8.555000 -1.548000
8.761000 8.361000 -1.138000
12.500000 11.799000 -1.085000
8.900000 8.544000 -1.362000
12.475000 11.832000 -1.378000
12.536000 11.780000 -0.830000
8.830000 8.556000 -1.576000
8.742000 8.350000 -1.165000
12.504000 11.804000 -1.126000
8.896000 8.549000 -1.392000
12.445000 11.807000 -1.413000
12.537000 11.778000 -0.868000
8.843000 8.576000 -1.608000
8.738000 8.349000 -1.193000
12.508000 11.806000 -1.166000
8.886000 8.543000 -1.420000
12.445000 11.806000 -1.454000
12.546000 11.779000 -0.909000
8.845000 8.583000 -1.639000
8.736000 8.346000 -1.220000
12.463000 11.754000 -1.200000
8.879000 8.537000 -1.447000
0.000000 0.000000 0.000000
12.569000 11.788000 -0.950000
8.860000 8.599000 -1.671000
8.749000 8.355000 -1.251000
12.402000 11.686000 -1.234000
8.872000 8.527000 -1.475000
8.824000 8.359000 -1.086000
12.586000 11.786000 -0.988000
8.859000 8.596000 -1.700000
8.761000 8.360000 -1.280000
12.453000 11.718000 -1.277000
8.866000 8.515000 -1.503000
8.812000 8.338000 -1.112000
12.593000 11.771000 -1.028000
8.848000 8.580000 -1.727000
8.764000 8.352000 -1.307000
12.527000 11.766000 -1.321000
8.852000 8.492000 -1.528000
8.796000 8.309000 -1.137000
12.618000 11.768000 -1.068000
8.821000 8.545000 -1.750000
8.811000 8.382000 -1.342000
12.586000 11.795000 -1.367000
8.850000 8.478000 -1.556000
8.811000 8.305000 -1.165000
12.618000 11.737000 -1.104000
8.811000 8.523000 -1.775000
8.848000 8.401000 -1.375000
12.614000 11.791000 -1.407000
8.880000 8.490000 -1.588000
8.827000 8.299000 -1.194000
12.647000 11.729000 -1.145000
8.822000 8.518000 -1.806000
8.888000 8.418000 -1.407000
12.637000 11.777000 -1.445000
8.884000 8.474000 -1.615000
8.861000 8.308000 -1.224000
12.669000 11.710000 -1.183000
8.816000 8.492000 -1.831000
8.910000 8.416000 -1.437000
12.644000 11.745000 -1.483000
8.883000 8.450000 -1.642000
8.912000 8.329000 -1.256000
12.630000 11.630000 -1.214000
8.810000 8.464000 -1.856000
8.898000 8.377000 -1.461000
12.702000 11.756000 -1.526000
8.884000 8.425000 -1.668000
12.582000 11.716000 -1.810000
12.680000 11.628000 -1.255000
8.832000 8.459000 -1.887000
8.921000 8.368000 -1.489000
12.739000 11.742000 -1.564000
8.895000 8.406000 -1.695000
9.044000 8.389000 -1.326000
12.803000 11.689000 -1.302000
8.849000 8.446000 -1.916000
8.911000 8.325000 -1.512000
12.748000 11.698000 -1.601000
8.898000 8.375000 -1.720000
8.998000 8.309000 -1.343000
12.838000 11.664000 -1.339000
8.862000 8.426000 -1.943000
8.907000 8.286000 -1.536000
12.807000 11.697000 -1.642000
8.904000 8.346000 -1.745000
9.022000 8.292000 -1.371000
12.908000 11.668000 -1.381000
8.873000 8.399000 -1.969000
8.929000 8.267000 -1.562000
12.848000 11.674000 -1.679000
8.903000 8.306000 -1.768000
9.050000 8.276000 -1.398000
12.950000 11.642000 -1.418000
8.877000 8.364000 -1.993000
8.972000 8.265000 -1.593000
12.905000 11.660000 -1.720000
8.930000 8.289000 -1.796000
9.037000 8.220000 -1.418000
12.938000 11.563000 -1.447000
8.899000 8.344000 -2.020000
8.988000 8.234000 -1.618000
12.967000 11.649000 -1.759000
8.940000 8.253000 -1.820000
12.829000 11.601000 -2.045000
13.043000 11.586000 -1.492000
8.757000 8.165000 -2.009000
9.005000 8.202000 -1.641000
12.963000 11.573000 -1.788000
8.930000 8.197000 -1.839000
12.894000 11.589000 -2.085000
13.115000 11.574000 -1.530000
8.802000 8.160000 -2.040000
9.021000 8.167000 -1.666000
13.082000 11.604000 -1.836000
8.980000 8.192000 -1.869000
14.442000 12.897000 -2.367000
13.171000 11.545000 -1.566000
9.001000 8.294000 -2.106000
9.227000 8.299000 -1.724000
13.145000 11.581000 -1.874000
9.159000 8.302000 -1.927000
12.643000 11.214000 -2.101000
13.250000 11.532000 -1.605000
9.063000 8.296000 -2.141000
9.255000 8.267000 -1.748000
13.195000 11.542000 -1.908000
12.057000 10.855000 -2.561000
14.189000 12.497000 -2.387000
13.295000 11.487000 -1.639000
9.146000 8.315000 -2.179000
12.652000 11.222000 -2.418000
13.245000 11.501000 -1.944000
11.982000 10.711000 -2.569000
14.130000 12.353000 -2.405000
13.381000 11.472000 -1.676000
11.069000 9.992000 -2.659000
12.856000 11.319000 -2.482000
13.258000 11.424000 -1.972000
11.898000 10.557000 -2.575000
14.015000 12.158000 -2.413000
13.476000 11.461000 -1.715000
11.006000 9.860000 -2.663000
12.796000 11.178000 -2.493000
13.342000 11.405000 -2.009000
11.843000 10.427000 -2.584000
13.863000 11.931000 -2.413000
13.520000 11.405000 -1.746000
10.941000 9.725000 -2.668000
12.724000 11.026000 -2.503000
13.424000 11.380000 -2.047000
11.778000 10.286000 -2.590000
13.750000 11.736000 -2.416000
13.603000 11.377000 -1.781000
10.902000 9.613000 -2.677000
12.636000 10.860000 -2.507000
15.133000 12.720000 -2.334000
11.695000 10.129000 -2.592000
13.680000 11.576000 -2.428000
13.701000 11.359000 -1.819000
10.840000 9.477000 -2.678000
12.572000 10.711000 -2.514000
15.015000 12.509000 -2.339000
11.643000 9.997000 -2.599000
13.602000 11.410000 -2.436000
13.793000 11.332000 -1.854000
10.794000 9.354000 -2.683000
12.513000 10.566000 -2.523000
14.814000 12.230000 -2.333000
11.600000 9.871000 -2.605000
13.506000 11.226000 -2.439000
13.821000 11.250000 -1.879000
10.747000 9.230000 -2.687000
12.459000 10.425000 -2.530000
14.787000 12.094000 -2.351000
11.535000 9.725000 -2.608000
13.448000 11.074000 -2.449000
13.855000 11.170000 -1.906000
10.715000 9.117000 -2.692000
12.409000 10.285000 -2.536000
14.663000 11.878000 -2.352000
11.486000 9.593000 -2.612000
13.392000 10.921000 -2.457000
13.946000 11.135000 -1.939000
10.679000 9.000000 -2.697000
12.339000 10.127000 -2.539000
14.551000 11.671000 -2.355000
11.457000 9.475000 -2.618000
9.504000 7.675000 -1.756000
14.063000 11.115000 -1.973000
10.633000 8.874000 -2.698000
12.299000 9.995000 -2.545000
9.490000 7.536000 -1.548000
11.399000 9.333000 -2.619000
9.515000 7.606000 -1.770000
9.649000 7.549000 -1.367000
10.595000 8.752000 -2.698000
12.241000 9.847000 -2.546000
9.517000 7.480000 -1.564000
11.363000 9.210000 -2.623000
9.545000 7.552000 -1.787000
9.615000 7.444000 -1.374000
10.561000 8.634000 -2.701000
9.560000 7.610000 -2.000000
9.551000 7.427000 -1.581000
11.331000 9.087000 -2.626000
9.551000 7.477000 -1.798000
9.687000 7.421000 -1.396000
10.543000 8.529000 -2.705000
9.564000 7.533000 -2.010000
9.586000 7.375000 -1.597000
11.281000 8.950000 -2.626000
9.594000 7.429000 -1.816000
9.764000 7.397000 -1.418000
10.527000 8.423000 -2.709000
9.573000 7.458000 -2.020000
9.694000 7.378000 -1.625000
9.610000 7.542000 -2.245000
9.622000 7.370000 -1.830000
9.841000 7.374000 -1.440000
10.502000 8.310000 -2.711000
9.630000 7.419000 -2.041000
9.805000 7.378000 -1.653000
9.634000 7.476000 -2.257000
9.733000 7.372000 -1.859000
15.445000 11.444000 -2.275000
10.445000 8.173000 -2.703000
9.809000 7.472000 -2.086000
14.101000 10.491000 -2.390000
9.699000 7.441000 -2.280000
12.984000 9.722000 -2.492000
15.326000 11.224000 -2.272000
9.652000 7.465000 -2.503000
12.035000 9.062000 -2.568000
14.054000 10.336000 -2.394000
11.203000 8.496000 -2.640000
12.954000 9.587000 -2.496000
15.280000 11.061000 -2.278000
9.683000 7.401000 -2.516000
12.016000 8.942000 -2.572000
14.012000 10.183000 -2.397000
11.193000 8.388000 -2.643000
12.930000 9.456000 -2.499000
15.236000 10.899000 -2.283000
10.445000 7.888000 -2.719000
11.980000 8.810000 -2.572000
13.973000 10.034000 -2.401000
11.170000 8.271000 -2.644000
12.891000 9.314000 -2.500000
15.184000 10.730000 -2.287000
10.430000 7.782000 -2.718000
11.961000 8.689000 -2.573000
13.935000 9.887000 -2.403000
11.152000 8.157000 -2.645000
12.879000 9.193000 -2.505000
14.625000 10.209000 -2.213000
10.418000 7.677000 -2.719000
11.943000 8.569000 -2.575000
13.900000 9.739000 -2.405000
11.143000 8.049000 -2.646000
12.859000 9.066000 -2.507000
14.732000 10.157000 -2.238000
10.412000 7.577000 -2.720000
11.928000 8.452000 -2.577000
13.869000 9.596000 -2.407000
11.132000 7.940000 -2.647000
12.835000 8.934000 -2.509000
14.798000 10.073000 -2.257000
10.398000 7.471000 -2.718000
11.920000 8.339000 -2.579000
13.851000 9.463000 -2.411000
11.121000 7.831000 -2.647000
12.804000 8.800000 -2.508000
14.955000 10.051000 -2.289000
10.406000 7.379000 -2.722000
11.914000 8.227000 -2.582000
13.836000 9.331000 -2.415000
11.116000 7.726000 -2.648000
12.789000 8.676000 -2.508000
14.990000 9.945000 -2.301000
10.420000 7.293000 -2.726000
11.912000 8.119000 -2.584000
13.815000 9.195000 -2.416000
11.121000 7.628000 -2.651000
12.760000 8.543000 -2.507000
14.670000 9.604000 -2.259000
10.402000 7.183000 -2.721000
11.893000 7.999000 -2.581000
13.801000 9.065000 -2.418000
11.122000 7.527000 -2.652000
12.760000 8.429000 -2.510000
14.829000 9.580000 -2.289000
10.409000 7.091000 -2.723000
11.898000 7.895000 -2.585000
13.776000 8.927000 -2.418000
11.117000 7.422000 -2.651000
12.752000 8.310000 -2.510000
14.639000 9.331000 -2.264000
10.407000 6.993000 -2.722000
11.893000 7.784000 -2.585000
13.759000 8.796000 -2.418000
11.115000 7.319000 -2.651000
12.756000 8.199000 -2.514000
14.731000 9.260000 -2.283000
10.415000 6.901000 -2.722000
11.889000 7.675000 -2.584000
13.748000 8.668000 -2.419000
11.113000 7.217000 -2.650000
12.760000 8.089000 -2.516000
14.865000 9.216000 -2.308000
10.432000 6.816000 -2.726000
11.893000 7.569000 -2.585000
13.730000 8.536000 -2.418000
11.129000 7.125000 -2.652000
12.743000 7.965000 -2.513000
14.902000 9.111000 -2.316000
10.425000 6.715000 -2.721000
11.888000 7.460000 -2.584000
13.732000 8.417000 -2.420000
11.121000 7.018000 -2.649000
12.755000 7.859000 -2.516000
14.887000 8.971000 -2.317000
10.443000 6.629000 -2.723000
11.895000 7.359000 -2.585000
13.716000 8.288000 -2.418000
11.130000 6.924000 -2.650000
12.745000 7.741000 -2.514000
14.880000 8.840000 -2.318000
10.445000 6.534000 -2.721000
11.907000 7.258000 -2.586000
13.722000 8.171000 -2.420000
11.131000 6.823000 -2.647000
12.750000 7.632000 -2.515000
14.860000 8.700000 -2.316000
10.455000 6.444000 -2.720000
11.911000 7.155000 -2.585000
13.718000 8.050000 -2.419000
11.140000 6.728000 -2.647000
12.753000 7.521000 -2.514000
14.866000 8.575000 -2.318000
10.464000 6.354000 -2.718000
11.916000 7.052000 -2.584000
13.717000 7.931000 -2.419000
11.151000 6.634000 -2.647000
12.764000 7.416000 -2.515000
14.868000 8.450000 -2.319000
10.477000 6.265000 -2.718000
11.925000 6.950000 -2.584000
13.725000 7.816000 -2.419000
11.160000 6.539000 -2.645000
12.760000 7.303000 -2.512000
14.859000 8.318000 -2.317000
10.493000 6.179000 -2.718000
11.935000 6.851000 -2.583000
13.723000 7.697000 -2.418000
11.169000 6.443000 -2.644000
12.770000 7.196000 -2.512000
14.870000 8.197000 -2.319000
10.505000 6.090000 -2.716000
11.934000 6.746000 -2.579000
13.739000 7.588000 -2.419000
11.189000 6.356000 -2.645000
12.800000 7.102000 -2.515000
14.881000 8.077000 -2.320000
10.525000 6.006000 -2.717000
11.954000 6.651000 -2.580000
13.754000 7.478000 -2.419000
11.200000 6.262000 -2.642000
12.813000 6.999000 -2.515000
14.864000 7.943000 -2.316000
10.538000 5.919000 -2.715000
11.959000 6.549000 -2.577000
13.759000 7.363000 -2.418000
11.219000 6.173000 -2.643000
12.816000 6.889000 -2.512000
14.875000 7.823000 -2.315000
10.553000 5.832000 -2.712000
11.983000 6.458000 -2.578000
13.770000 7.253000 -2.418000
11.239000 6.085000 -2.642000
12.834000 6.788000 -2.512000
14.869000 7.695000 -2.313000
10.574000 5.748000 -2.712000
12.001000 6.363000 -2.578000
13.789000 7.146000 -2.417000
11.252000 5.993000 -2.640000
12.857000 6.691000 -2.513000
14.874000 7.573000 -2.311000
10.595000 5.666000 -2.712000
12.015000 6.267000 -2.576000
13.791000 7.030000 -2.415000
11.274000 5.905000 -2.640000
12.859000 6.581000 -2.509000
14.874000 7.449000 -2.308000
10.605000 5.577000 -2.708000
12.025000 6.168000 -2.573000
13.808000 6.923000 -2.414000
11.296000 5.818000 -2.639000
12.894000 6.490000 -2.511000
14.877000 7.327000 -2.306000
10.618000 5.489000 -2.705000
12.039000 6.071000 -2.571000
13.828000 6.818000 -2.413000
11.310000 5.728000 -2.636000
12.913000 6.391000 -2.510000
14.893000 7.212000 -2.305000
10.645000 5.409000 -2.705000
12.064000 5.981000 -2.571000
13.848000 6.711000 -2.413000
11.326000 5.637000 -2.634000
12.925000 6.287000 -2.508000
14.927000 7.106000 -2.307000
10.659000 5.323000 -2.702000
12.094000 5.894000 -2.572000
13.877000 6.611000 -2.414000
11.352000 5.553000 -2.634000
12.949000 6.191000 -2.507000
14.943000 6.991000 -2.306000
10.684000 5.242000 -2.701000
12.115000 5.800000 -2.570000
13.884000 6.499000 -2.410000
11.366000 5.462000 -2.631000
12.971000 6.093000 -2.506000
14.945000 6.871000 -2.302000
10.697000 5.156000 -2.698000
12.142000 5.711000 -2.570000
13.911000 6.397000 -2.410000
11.390000 5.376000 -2.630000
12.987000 5.992000 -2.504000
14.973000 6.761000 -2.302000
10.729000 5.079000 -2.698000
12.157000 5.617000 -2.567000
13.929000 6.292000 -2.409000
11.422000 5.295000 -2.631000
12.996000 5.889000 -2.500000
15.007000 6.655000 -2.303000
10.752000 4.997000 -2.697000
12.177000 5.523000 -2.565000
13.933000 6.180000 -2.403000
11.426000 5.200000 -2.625000
13.012000 5.790000 -2.497000
15.012000 6.537000 -2.299000
10.771000 4.913000 -2.694000
12.195000 5.430000 -2.563000
13.975000 6.084000 -2.406000
11.456000 5.117000 -2.625000
13.044000 5.696000 -2.497000
15.042000 6.430000 -2.298000
10.799000 4.834000 -2.693000
12.209000 5.336000 -2.559000
13.990000 5.978000 -2.403000
11.462000 5.024000 -2.619000
13.057000 5.595000 -2.494000
15.067000 6.319000 -2.297000
10.811000 4.748000 -2.689000
12.231000 5.244000 -2.557000
13.994000 5.867000 -2.397000
11.489000 4.941000 -2.618000
13.077000 5.498000 -2.491000
15.090000 6.210000 -2.296000
10.842000 4.670000 -2.689000
12.255000 5.154000 -2.555000
14.025000 5.768000 -2.398000
11.511000 4.854000 -2.616000
13.097000 5.400000 -2.489000
15.116000 6.101000 -2.294000
10.855000 4.585000 -2.685000
12.274000 5.062000 -2.553000
14.055000 5.668000 -2.397000
11.540000 4.771000 -2.616000
13.117000 5.303000 -2.486000
15.140000 5.991000 -2.293000
10.879000 4.504000 -2.683000
12.298000 4.971000 -2.551000
14.066000 5.561000 -2.392000
11.543000 4.678000 -2.609000
13.138000 5.206000 -2.483000
15.179000 5.888000 -2.293000
10.910000 4.426000 -2.683000
12.320000 4.881000 -2.548000
14.085000 5.457000 -2.390000
11.576000 4.596000 -2.609000
13.170000 5.113000 -2.483000
15.207000 5.780000 -2.291000
10.930000 4.345000 -2.680000
12.341000 4.790000 -2.546000
14.106000 5.354000 -2.387000
11.602000 4.513000 -2.608000
13.166000 5.008000 -2.476000
15.234000 5.671000 -2.290000
10.952000 4.262000 -2.678000
12.366000 4.700000 -2.544000
14.145000 5.258000 -2.387000
11.621000 4.426000 -2.605000
13.199000 4.916000 -2.475000
15.238000 5.555000 -2.285000
10.977000 4.183000 -2.676000
12.387000 4.610000 -2.541000
14.171000 5.157000 -2.385000
11.650000 4.342000 -2.603000
13.234000 4.824000 -2.475000
15.284000 5.454000 -2.285000
11.006000 4.105000 -2.675000
12.412000 4.521000 -2.539000
14.192000 5.055000 -2.383000
11.680000 4.260000 -2.603000
13.232000 4.720000 -2.468000
15.296000 5.340000 -2.281000
11.029000 4.023000 -2.673000
12.435000 4.430000 -2.537000
14.214000 4.953000 -2.379000
11.703000 4.176000 -2.601000
13.271000 4.631000 -2.468000
15.313000 5.230000 -2.278000
11.051000 3.942000 -2.670000
12.462000 4.342000 -2.535000
14.229000 4.848000 -2.376000
11.735000 4.093000 -2.600000
13.278000 4.529000 -2.463000
15.365000 5.131000 -2.279000
11.075000 3.862000 -2.669000
12.484000 4.252000 -2.532000
14.252000 4.747000 -2.373000
11.754000 4.007000 -2.597000
13.307000 4.437000 -2.462000
15.380000 5.019000 -2.275000
11.094000 3.779000 -2.665000
12.505000 4.161000 -2.530000
14.283000 4.648000 -2.372000
11.781000 3.924000 -2.596000
13.335000 4.344000 -2.460000
15.416000 4.915000 -2.275000
11.124000 3.701000 -2.665000
12.526000 4.071000 -2.527000
14.305000 4.546000 -2.369000
11.821000 3.844000 -2.597000
13.366000 4.250000 -2.459000
15.433000 4.804000 -2.271000
11.144000 3.620000 -2.662000
12.555000 3.984000 -2.526000
14.334000 4.447000 -2.368000
11.832000 3.756000 -2.592000
13.393000 4.157000 -2.457000
15.472000 4.700000 -2.271000
11.170000 3.540000 -2.661000
12.589000 3.897000 -2.526000
14.360000 4.347000 -2.365000
11.860000 3.673000 -2.591000
13.418000 4.064000 -2.455000
15.480000 4.587000 -2.266000
11.196000 3.461000 -2.659000
12.613000 3.808000 -2.524000
14.383000 4.245000 -2.363000
11.878000 3.585000 -2.588000
13.451000 3.971000 -2.455000
15.514000 4.482000 -2.264000
11.218000 3.380000 -2.657000
12.634000 3.719000 -2.521000
14.407000 4.145000 -2.361000
11.913000 3.505000 -2.589000
13.467000 3.874000 -2.451000
15.554000 4.378000 -2.264000
11.231000 3.296000 -2.653000
12.658000 3.628000 -2.519000
14.442000 4.048000 -2.360000
11.925000 3.417000 -2.584000
13.486000 3.779000 -2.448000
15.560000 4.265000 -2.259000
11.259000 3.217000 -2.652000
12.682000 3.539000 -2.517000
14.469000 3.947000 -2.358000
11.966000 3.337000 -2.586000
13.513000 3.684000 -2.446000
15.578000 4.156000 -2.256000
11.273000 3.135000 -2.649000
12.712000 3.452000 -2.516000
14.493000 3.847000 -2.356000
11.983000 3.251000 -2.583000
13.538000 3.590000 -2.445000
15.603000 4.048000 -2.254000
11.309000 3.057000 -2.650000
12.743000 3.364000 -2.516000
14.504000 3.744000 -2.352000
11.996000 3.164000 -2.579000
13.553000 3.494000 -2.441000
15.626000 3.940000 -2.251000
11.329000 2.976000 -2.648000
12.756000 3.272000 -2.512000
14.544000 3.646000 -2.352000
12.018000 3.078000 -2.577000
13.585000 3.401000 -2.441000
15.576000 3.815000 -2.238000
11.353000 2.896000 -2.647000
12.781000 3.184000 -2.511000
14.563000 3.545000 -2.350000
12.049000 2.995000 -2.578000
13.621000 3.310000 -2.441000
15.616000 3.710000 -2.239000
11.383000 2.816000 -2.647000
12.787000 3.090000 -2.505000
14.584000 3.444000 -2.347000
12.067000 2.910000 -2.575000
13.646000 3.216000 -2.440000
15.721000 3.622000 -2.248000
11.400000 2.735000 -2.645000
12.825000 3.004000 -2.507000
14.611000 3.343000 -2.346000
12.090000 2.824000 -2.574000
13.661000 3.119000 -2.436000
15.670000 3.498000 -2.236000
11.423000 2.654000 -2.644000
12.844000 2.914000 -2.505000
14.626000 3.241000 -2.343000
12.117000 2.741000 -2.574000
13.674000 3.022000 -2.433000
15.691000 3.389000 -2.233000
11.442000 2.572000 -2.642000
12.874000 2.826000 -2.505000
14.647000 3.140000 -2.341000
12.135000 2.655000 -2.572000
13.705000 2.929000 -2.433000
15.752000 3.290000 -2.237000
11.460000 2.491000 -2.640000
12.887000 2.734000 -2.502000
14.674000 3.039000 -2.340000
12.162000 2.570000 -2.571000
13.724000 2.833000 -2.431000
15.827000 3.193000 -2.242000
11.474000 2.408000 -2.637000
12.903000 2.643000 -2.500000
14.708000 2.941000 -2.340000
12.178000 2.484000 -2.569000
13.755000 2.740000 -2.431000
15.792000 3.073000 -2.232000
11.496000 2.326000 -2.637000
12.935000 2.555000 -2.500000
14.726000 2.839000 -2.338000
12.182000 2.396000 -2.565000
13.776000 2.645000 -2.430000
15.786000 2.960000 -2.227000
11.498000 2.242000 -2.632000
12.948000 2.463000 -2.498000
14.740000 2.736000 -2.335000
12.207000 2.310000 -2.565000
13.800000 2.550000 -2.429000
15.794000 2.850000 -2.223000
11.475000 2.153000 -2.621000
12.957000 2.372000 -2.494000
14.760000 2.635000 -2.334000
12.229000 2.225000 -2.564000
13.823000 2.455000 -2.428000
15.898000 2.756000 -2.233000
11.472000 2.067000 -2.615000
12.985000 2.282000 -2.495000
14.802000 2.537000 -2.336000
12.245000 2.139000 -2.563000
13.808000 2.354000 -2.421000
15.895000 2.644000 -2.229000
11.508000 1.989000 -2.618000
13.012000 2.193000 -2.495000
14.814000 2.433000 -2.333000
12.259000 2.052000 -2.561000
13.857000 2.263000 -2.425000
15.894000 2.532000 -2.224000
11.543000 1.911000 -2.622000
13.014000 2.100000 -2.491000
14.829000 2.331000 -2.331000
12.255000 1.962000 -2.556000
13.860000 2.164000 -2.421000
15.888000 2.419000 -2.219000
11.569000 1.830000 -2.623000
13.028000 2.009000 -2.490000
14.857000 2.231000 -2.332000
12.289000 1.879000 -2.558000
13.893000 2.071000 -2.423000
15.934000 2.315000 -2.222000
11.562000 1.745000 -2.617000
13.030000 1.915000 -2.486000
14.874000 2.128000 -2.331000
12.303000 1.792000 -2.557000
13.906000 1.974000 -2.421000
15.938000 2.205000 -2.219000
11.571000 1.662000 -2.615000
13.066000 1.828000 -2.489000
14.897000 2.027000 -2.330000
12.292000 1.702000 -2.551000
13.909000 1.876000 -2.418000
15.920000 2.090000 -2.213000
11.583000 1.579000 -2.614000
13.067000 1.734000 -2.485000
14.863000 1.919000 -2.322000
12.299000 1.615000 -2.549000
13.948000 1.783000 -2.422000
15.960000 1.984000 -2.215000
11.597000 1.497000 -2.613000
13.082000 1.643000 -2.485000
14.927000 1.821000 -2.328000
12.334000 1.530000 -2.552000
13.933000 1.682000 -2.415000
15.998000 1.879000 -2.217000
11.655000 1.420000 -2.622000
13.091000 1.551000 -2.483000
14.963000 1.722000 -2.331000
12.372000 1.447000 -2.557000
13.940000 1.585000 -2.414000
16.003000 1.767000 -2.215000
11.677000 1.338000 -2.624000
13.108000 1.461000 -2.483000
14.959000 1.617000 -2.327000
12.386000 1.360000 -2.557000
13.966000 1.490000 -2.415000
16.035999 1.660000 -2.217000
11.641000 1.250000 -2.613000
13.134000 1.370000 -2.485000
14.957000 1.511000 -2.324000
12.396000 1.272000 -2.556000
13.954000 1.391000 -2.411000
16.011999 1.548000 -2.212000
11.658000 1.168000 -2.614000
13.163000 1.280000 -2.488000
14.995000 1.412000 -2.328000
12.405000 1.185000 -2.555000
14.021000 1.298000 -2.420000
15.980000 1.433000 -2.205000
11.660000 1.084000 -2.612000
13.145000 1.186000 -2.482000
14.979000 1.306000 -2.323000
12.409000 1.097000 -2.553000
13.990000 1.198000 -2.412000
16.052999 1.329000 -2.213000
11.658000 1.000000 -2.609000
13.150000 1.093000 -2.481000
15.017000 1.204000 -2.327000
12.438000 1.010000 -2.557000
14.019000 1.103000 -2.415000
16.038000 1.218000 -2.209000
11.715000 0.922000 -2.619000
13.201000 1.004000 -2.489000
14.979000 1.098000 -2.319000
12.441000 0.923000 -2.556000
14.005000 1.003000 -2.411000
16.039000 1.107000 -2.207000
11.758000 0.840000 -2.627000
13.194000 0.911000 -2.486000
15.048000 0.999000 -2.328000
12.460000 0.836000 -2.558000
14.027000 0.907000 -2.413000
16.091000 1.000000 -2.213000
11.760000 0.756000 -2.626000
13.235000 0.820000 -2.492000
15.076000 0.896000 -2.331000
12.470000 0.747000 -2.558000
14.049000 0.811000 -2.416000
16.044001 0.887000 -2.206000
11.765000 0.673000 -2.626000
13.237000 0.728000 -2.491000
15.104000 0.793000 -2.335000
12.464000 0.659000 -2.556000
14.092000 0.714000 -2.422000
16.073000 0.778000 -2.209000
11.780000 0.589000 -2.628000
13.228000 0.635000 -2.488000
15.112000 0.689000 -2.335000
12.461000 0.571000 -2.554000
14.129000 0.618000 -2.427000
16.107000 0.669000 -2.213000
11.771000 0.504000 -2.625000
13.248000 0.542000 -2.491000
15.162000 0.586000 -2.342000
12.483000 0.483000 -2.558000
14.109000 0.519000 -2.423000
16.184999 0.562000 -2.223000
11.777000 0.421000 -2.625000
13.258000 0.450000 -2.492000
15.131000 0.481000 -2.337000
12.484000 0.395000 -2.558000
14.120000 0.420000 -2.425000
16.215000 0.451000 -2.227000
11.770000 0.336000 -2.623000
13.266000 0.357000 -2.494000
15.121000 0.377000 -2.335000
12.469000 0.307000 -2.554000
14.123000 0.323000 -2.425000
16.230000 0.340000 -2.229000
11.765000 0.252000 -2.622000
13.275000 0.263000 -2.495000
15.149000 0.271000 -2.339000
12.468000 0.218000 -2.554000
14.081000 0.224000 -2.418000
16.225000 0.230000 -2.228000
11.761000 0.169000 -2.621000
13.266000 0.171000 -2.493000
15.136000 0.167000 -2.338000
12.502000 0.131000 -2.561000
14.131000 0.125000 -2.427000
16.224001 0.117000 -2.229000
11.777000 0.084000 -2.625000
13.276000 0.078000 -2.496000
15.136000 0.063000 -2.338000
12.498000 0.043000 -2.561000
14.137000 0.028000 -2.428000
16.221001 0.006000 -2.229000
11.777000 0.001000 -2.626000
13.265000 -0.015000 -2.494000
15.100000 -0.041000 -2.333000
12.497000 -0.046000 -2.561000
14.137000 -0.069000 -2.429000
16.273001 -0.104000 -2.237000
11.789000 -0.082000 -2.629000
13.255000 -0.107000 -2.493000
15.098000 -0.145000 -2.334000
12.500000 -0.134000 -2.563000
14.138000 -0.169000 -2.431000
16.113001 -0.214000 -2.216000
11.744000 -0.167000 -2.620000
13.269000 -0.200000 -2.497000
15.077000 -0.249000 -2.332000
12.461000 -0.221000 -2.556000
14.131000 -0.266000 -2.431000
15.920000 -0.320000 -2.191000
11.735000 -0.250000 -2.619000
13.264000 -0.294000 -2.498000
15.068000 -0.354000 -2.332000
12.469000 -0.310000 -2.559000
14.094000 -0.364000 -2.426000
15.806000 -0.426000 -2.177000
11.702000 -0.332000 -2.614000
13.249000 -0.386000 -2.496000
15.040000 -0.457000 -2.330000
12.460000 -0.398000 -2.559000
14.116000 -0.464000 -2.431000
15.806000 -0.536000 -2.179000
11.686000 -0.417000 -2.612000
13.249000 -0.480000 -2.498000
15.149000 -0.565000 -2.348000
12.450000 -0.486000 -2.559000
14.092000 -0.562000 -2.429000
15.818000 -0.646000 -2.182000
11.661000 -0.499000 -2.608000
13.248000 -0.573000 -2.500000
15.093000 -0.668000 -2.342000
12.440000 -0.573000 -2.559000
14.088000 -0.659000 -2.431000
15.967000 -0.761000 -2.205000
11.715000 -0.585000 -2.623000
13.220000 -0.665000 -2.497000
15.067000 -0.772000 -2.340000
12.437000 -0.662000 -2.561000
14.092000 -0.758000 -2.434000
16.016001 -0.874000 -2.215000
11.685000 -0.667000 -2.619000
13.210000 -0.758000 -2.498000
15.080000 -0.877000 -2.345000
12.434000 -0.751000 -2.563000
14.080000 -0.857000 -2.435000
16.002001 -0.984000 -2.216000
11.714000 -0.753000 -2.628000
