# This PCD file was generated using the MATLAB® pcwrite function
# from Computer Vision Toolbox®.
# .PCD v.7 - Point Cloud Data file format
VERSION .7
FIELDS x y z
SIZE 4 4 4
TYPE F F F
COUNT 1 1 1
WIDTH 1647
HEIGHT 1
VIEWPOINT 0 0 0 1 0 0 0
POINTS 1647
DATA ascii
0.000000 0.000000 0.000000
0.000000 0.000000 0.000000
54.417999 -49.624001 12.506000
0.000000 0.000000 0.000000
0.000000 0.000000 0.000000
59.158001 -52.841999 12.195000
54.129002 -49.594002 13.853000
60.604000 -53.320000 11.083000
0.000000 0.000000 0.000000
0.000000 0.000000 0.000000
0.000000 0.000000 0.000000
0.000000 0.000000 0.000000
0.000000 0.000000 0.000000
0.000000 0.000000 0.000000
0.000000 0.000000 0.000000
0.000000 0.000000 0.000000
0.000000 0.000000 0.000000
0.000000 0.000000 0.000000
0.000000 0.000000 0.000000
0.000000 0.000000 0.000000
0.000000 0.000000 0.000000
0.000000 0.000000 0.000000
0.000000 0.000000 0.000000
0.000000 0.000000 0.000000
0.000000 0.000000 0.000000
64.934998 -54.683998 11.917000
0.000000 0.000000 0.000000
0.000000 0.000000 0.000000
67.514000 -55.834000 10.798000
0.000000 0.000000 0.000000
0.000000 0.000000 0.000000
0.000000 0.000000 0.000000
0.000000 0.000000 0.000000
0.000000 0.000000 0.000000
0.000000 0.000000 0.000000
0.000000 0.000000 0.000000
0.000000 0.000000 0.000000
0.000000 0.000000 0.000000
0.000000 0.000000 0.000000
0.000000 0.000000 0.000000
0.000000 0.000000 0.000000
0.000000 0.000000 0.000000
0.000000 0.000000 0.000000
0.000000 0.000000 0.000000
0.000000 0.000000 0.000000
0.000000 0.000000 0.000000
61.146999 -48.372002 9.809000
0.000000 0.000000 0.000000
0.000000 0.000000 0.000000
61.147999 -48.509998 11.228000
0.000000 0.000000 0.000000
0.000000 0.000000 0.000000
61.352001 -47.817001 9.846000
61.492001 -48.777000 12.657000
0.000000 0.000000 0.000000
61.235001 -47.855999 11.238000
0.000000 0.000000 0.000000
63.238998 -51.710999 17.593000
61.818001 -47.452000 9.922000
61.195000 -47.799999 12.580000
0.000000 0.000000 0.000000
61.543999 -47.375999 11.286000
0.000000 0.000000 0.000000
0.000000 0.000000 0.000000
62.601002 -47.334999 10.045000
61.380001 -47.216999 12.600000
62.917999 -49.500000 15.840000
62.094002 -47.069000 11.375000
61.859001 -47.785999 14.056000
0.000000 0.000000 0.000000
62.706001 -46.702000 10.057000
62.134998 -47.070999 12.734000
0.000000 0.000000 0.000000
62.436001 -46.610001 11.424000
61.742001 -46.963001 13.999000
0.000000 0.000000 0.000000
61.389000 -45.020000 9.839000
62.367001 -46.513000 12.758000
0.000000 0.000000 0.000000
62.585999 -46.008999 11.435000
0.000000 0.000000 0.000000
61.884998 -47.493000 17.010000
0.000000 0.000000 0.000000
62.405998 -45.827000 12.741000
0.000000 0.000000 0.000000
63.074001 -45.646999 11.506000
0.000000 0.000000 0.000000
0.000000 0.000000 0.000000
58.014999 -41.257999 9.279000
0.000000 0.000000 0.000000
0.000000 0.000000 0.000000
63.432999 -45.200001 11.551000
62.323002 -45.216000 14.025000
0.000000 0.000000 0.000000
58.124001 -40.689999 9.284000
62.969002 -44.808998 12.802000
61.070999 -44.382999 15.161000
62.661999 -43.959000 11.388000
62.401001 -44.561001 14.004000
60.091000 -43.933998 16.348000
62.535000 -43.102001 9.973000
62.992001 -44.118999 12.771000
60.951000 -43.584999 15.079000
63.228001 -43.652000 11.466000
62.717999 -44.071999 14.038000
0.000000 0.000000 0.000000
63.048000 -42.778999 10.037000
63.537998 -43.800999 12.848000
62.790001 -44.181999 15.483000
63.181999 -42.936001 11.431000
63.532001 -43.930000 14.174000
60.646000 -42.907001 16.379000
64.362999 -42.977001 10.226000
63.551998 -43.111000 12.819000
63.703999 -44.098000 15.658000
63.275002 -42.320999 11.420000
0.000000 0.000000 0.000000
0.000000 0.000000 0.000000
63.675999 -41.848000 10.095000
0.000000 0.000000 0.000000
0.000000 0.000000 0.000000
63.729000 -41.938000 11.472000
67.578003 -45.235001 14.985000
0.000000 0.000000 0.000000
64.137001 -41.478001 10.148000
67.490997 -44.326000 13.531000
67.390999 -45.141998 16.444000
0.000000 0.000000 0.000000
72.347000 -47.638000 15.984000
0.000000 0.000000 0.000000
65.952003 -41.966999 10.406000
66.686996 -43.085999 13.331000
0.000000 0.000000 0.000000
62.487999 -39.806999 11.189000
71.738998 -46.466999 15.797000
59.379002 -39.306000 15.791000
57.886002 -36.243000 9.110000
67.205002 -42.709999 13.388000
71.598999 -46.387001 17.341000
66.690002 -41.791000 11.902000
62.348000 -39.716999 13.684000
0.000000 0.000000 0.000000
0.000000 0.000000 0.000000
59.924000 -37.459000 11.899000
62.251999 -39.661999 15.020000
67.271004 -41.467999 11.969000
59.762001 -37.437000 13.066000
66.018997 -42.241001 17.414000
65.817001 -39.872002 10.300000
67.745003 -41.645000 13.409000
59.703999 -37.396999 14.353000
68.157997 -41.318001 12.091000
0.000000 0.000000 0.000000
70.460999 -44.320999 18.509001
66.780998 -39.792999 10.420000
0.000000 0.000000 0.000000
72.668999 -44.748001 17.396999
63.210999 -37.681999 11.173000
62.638000 -37.935001 13.597000
0.000000 0.000000 0.000000
63.650002 -37.294998 9.903000
69.739998 -41.452999 13.703000
72.899002 -44.130001 17.382999
63.363998 -37.144001 11.162000
63.478001 -37.791000 13.723000
71.161003 -43.235001 18.537001
63.675999 -36.688999 9.875000
0.000000 0.000000 0.000000
0.000000 0.000000 0.000000
0.000000 0.000000 0.000000
63.497002 -37.160999 13.675000
0.000000 0.000000 0.000000
64.897003 -36.761002 10.028000
0.000000 0.000000 0.000000
0.000000 0.000000 0.000000
106.032997 -60.070999 18.551001
64.887001 -37.319000 13.922000
0.000000 0.000000 0.000000
64.592003 -35.964001 9.949000
64.149002 -36.213001 12.465000
0.000000 0.000000 0.000000
0.000000 0.000000 0.000000
0.000000 0.000000 0.000000
0.000000 0.000000 0.000000
0.000000 0.000000 0.000000
64.072998 -35.542000 12.405000
115.081001 -64.956001 27.000000
65.472000 -35.821999 11.370000
64.760002 -35.962002 13.781000
0.000000 0.000000 0.000000
0.000000 0.000000 0.000000
0.000000 0.000000 0.000000
0.000000 0.000000 0.000000
0.000000 0.000000 0.000000
62.977001 -34.354000 13.350000
116.015999 -64.503998 29.580999
60.238998 -31.830999 9.178000
64.586998 -34.583000 12.403000
0.000000 0.000000 0.000000
65.772003 -34.740002 11.332000
63.584999 -34.069000 13.420000
0.000000 0.000000 0.000000
64.391998 -33.430000 9.773000
0.000000 0.000000 0.000000
117.683998 -62.935001 27.261999
71.908997 -37.305000 12.344000
64.254997 -33.813999 13.506000
0.000000 0.000000 0.000000
64.040001 -32.655998 9.679000
71.185997 -36.765999 13.560000
118.966003 -62.466000 27.436001
64.788002 -33.012001 11.077000
65.363998 -33.772999 13.685000
0.000000 0.000000 0.000000
62.091999 -31.094000 9.350000
0.000000 0.000000 0.000000
104.554001 -53.898998 24.009001
64.992996 -32.516998 11.064000
65.971001 -33.463001 13.751000
0.000000 0.000000 0.000000
66.433998 -32.668999 9.965000
0.000000 0.000000 0.000000
70.541000 -35.691002 16.131001
64.968002 -31.910000 11.017000
67.292999 -33.507999 13.967000
0.000000 0.000000 0.000000
72.524002 -35.011002 10.832000
64.116997 -31.332001 12.064000
70.560997 -35.033001 16.063000
65.783997 -31.718000 11.110000
69.980003 -34.195000 14.466000
0.000000 0.000000 0.000000
66.983002 -31.737000 9.965000
64.827003 -31.091999 12.146000
120.914001 -58.908001 27.408001
69.435997 -32.853001 11.676000
70.014999 -33.566002 14.409000
0.000000 0.000000 0.000000
67.527000 -31.400999 10.005000
65.583000 -30.860001 12.239000
70.253998 -33.573002 15.858000
66.698997 -30.962000 11.171000
65.917000 -31.004000 13.508000
0.000000 0.000000 0.000000
67.620003 -30.849001 9.974000
66.290001 -30.598000 12.316000
70.628998 -33.106998 15.874000
65.811996 -29.972000 10.976000
66.982002 -30.896999 13.670000
0.000000 0.000000 0.000000
0.000000 0.000000 0.000000
65.843002 -29.808001 12.182000
70.785004 -32.534000 15.837000
66.672997 -29.778999 11.070000
66.481003 -30.070000 13.507000
0.000000 0.000000 0.000000
0.000000 0.000000 0.000000
66.412003 -29.479000 12.237000
71.588997 -32.251999 15.950000
67.421997 -29.524000 11.149000
0.000000 0.000000 0.000000
0.000000 0.000000 0.000000
81.736000 -35.172001 11.903000
81.456001 -35.443001 14.942000
0.000000 0.000000 0.000000
68.013000 -29.198999 11.199000
0.000000 0.000000 0.000000
0.000000 0.000000 0.000000
91.949997 -38.782001 13.336000
80.584000 -34.368000 14.719000
0.000000 0.000000 0.000000
0.000000 0.000000 0.000000
111.571999 -47.511002 22.379000
78.235001 -33.856998 18.836000
0.000000 0.000000 0.000000
0.000000 0.000000 0.000000
0.000000 0.000000 0.000000
0.000000 0.000000 0.000000
0.000000 0.000000 0.000000
0.000000 0.000000 0.000000
74.015999 -29.973000 10.641000
69.417999 -28.410000 12.572000
79.282997 -32.911999 17.364000
0.000000 0.000000 0.000000
0.000000 0.000000 0.000000
78.696999 -32.654999 18.783001
74.196999 -29.427000 10.622000
68.532997 -27.469000 12.360000
79.843002 -32.449001 17.409000
0.000000 0.000000 0.000000
0.000000 0.000000 0.000000
79.176003 -32.161999 18.816999
74.308998 -28.860001 10.592000
68.662003 -26.940001 12.332000
68.572998 -27.275999 14.890000
69.522003 -26.908001 11.205000
68.914001 -26.981001 13.590000
0.000000 0.000000 0.000000
74.502998 -28.322001 10.572000
69.864998 -26.827000 12.493000
69.174004 -26.926001 14.958000
68.996002 -26.136999 11.073000
69.501999 -26.622999 13.651000
70.185997 -27.288000 16.539000
59.296001 -22.056000 8.379000
68.732002 -25.823000 12.240000
69.375999 -26.413000 14.937000
67.943001 -25.179001 10.856000
69.848999 -26.174000 13.662000
68.349998 -25.990000 16.040001
58.773998 -21.388000 8.270000
68.818001 -25.285000 12.206000
69.467003 -25.860001 14.896000
68.742996 -24.912001 10.939000
68.234001 -25.000999 13.288000
68.570999 -25.489000 16.021999
57.470001 -20.450001 8.050000
69.100998 -24.826000 12.205000
69.064003 -25.134001 14.749000
67.823997 -24.032000 10.748000
70.321999 -25.181999 13.641000
69.913002 -25.393999 16.271000
57.736000 -20.082001 8.053000
72.092003 -25.312000 12.679000
70.726997 -25.150000 15.041000
68.556999 -23.739000 10.816000
68.369003 -23.924000 13.208000
69.947998 -24.822001 16.214001
57.671001 -19.601999 8.010000
70.106003 -24.045000 12.281000
69.672997 -24.197001 14.758000
68.817001 -23.277000 10.814000
69.375000 -23.709999 13.346000
0.000000 0.000000 0.000000
57.793999 -19.187000 7.992000
0.000000 0.000000 0.000000
70.674004 -23.966999 14.911000
74.091003 -24.474001 11.596000
70.980003 -23.681999 13.602000
86.166000 -29.141001 19.813000
58.441002 -18.941000 8.048000
71.616997 -23.417000 12.443000
71.055000 -23.516001 14.931000
71.049004 -22.907000 11.072000
73.728996 -24.007999 14.074000
72.276001 -23.851000 16.554001
58.299999 -18.443001 7.995000
71.081001 -22.674999 12.302000
71.195999 -22.983000 14.904000
72.304001 -22.740999 11.223000
93.647003 -29.743000 17.802999
79.971001 -25.735001 18.243999
70.617996 -21.789000 9.643000
72.204002 -22.466000 12.448000
99.640999 -31.368000 20.778000
77.762001 -23.854000 12.022000
0.000000 0.000000 0.000000
0.000000 0.000000 0.000000
59.265999 -17.827999 8.061000
72.769997 -22.069000 12.495000
77.087997 -23.648001 16.013000
78.874001 -23.582001 12.144000
103.162003 -31.131001 19.464001
0.000000 0.000000 0.000000
59.249001 -17.370001 8.026000
73.484001 -21.709999 12.571000
82.988998 -24.796000 17.174999
79.355003 -23.110001 12.172000
73.476997 -21.594999 13.809000
69.817001 -20.775000 15.748000
76.049004 -21.714001 10.258000
0.000000 0.000000 0.000000
72.821999 -21.184999 15.016000
75.820000 -21.500999 11.585000
98.364998 -28.136000 18.421000
69.712997 -20.184000 15.670000
60.075001 -16.695000 8.072000
103.702003 -29.035999 17.605000
0.000000 0.000000 0.000000
83.628998 -23.079000 12.730000
0.000000 0.000000 0.000000
71.081001 -20.018999 15.920000
58.422001 -15.795000 7.820000
87.342003 -23.781000 14.775000
84.555000 -23.268000 17.309999
80.345001 -21.556000 12.183000
0.000000 0.000000 0.000000
71.065002 -19.452999 15.859000
59.000000 -15.511000 7.867000
80.357002 -21.268000 13.545000
0.000000 0.000000 0.000000
85.139999 -22.201000 12.864000
88.411003 -23.238001 16.379000
71.271004 -18.948000 15.851000
59.214001 -15.119000 7.865000
0.000000 0.000000 0.000000
83.945000 -21.798000 17.065001
84.610001 -21.429001 12.737000
72.926003 -18.612000 13.464000
71.399002 -18.427000 15.826000
59.398998 -14.727000 7.860000
111.461998 -27.806000 18.655001
83.964996 -21.153999 17.013000
84.474998 -20.754999 12.671000
79.601997 -19.704000 14.646000
71.708000 -17.948000 15.841000
84.233002 -20.261000 11.106000
0.000000 0.000000 0.000000
81.321999 -19.867001 16.423000
84.571999 -20.152000 12.641000
79.096001 -18.982000 14.505000
71.939003 -17.447001 15.842000
60.292999 -14.053000 7.920000
103.143997 -24.177000 17.146000
82.017998 -19.410000 16.509001
79.772003 -18.419001 11.882000
79.386002 -18.455999 14.511000
80.752998 -18.966999 17.726999
60.410000 -13.639000 7.907000
81.813004 -18.570000 13.556000
83.257004 -19.069000 16.707001
80.065002 -17.888000 11.886000
79.344002 -17.843000 14.457000
83.680000 -19.013000 18.311001
80.723999 -17.638000 10.530000
81.936996 -17.992001 13.533000
87.824997 -19.454000 17.569000
60.931999 -13.167000 9.016000
79.418999 -17.270000 14.426000
85.624001 -18.799000 18.681999
60.862999 -12.851000 7.912000
81.098999 -17.202000 13.352000
83.022003 -17.764999 16.556999
61.346001 -12.810000 9.048000
79.459999 -16.690001 14.390000
81.959999 -17.375999 17.830999
80.783997 -16.473000 10.467000
83.540001 -17.107000 13.713000
83.535004 -17.246000 16.612000
82.161003 -16.549999 12.080000
0.000000 0.000000 0.000000
83.370003 -17.044001 18.084000
80.425003 -15.821000 10.387000
84.188004 -16.625000 13.778000
83.327003 -16.584000 16.525000
60.806999 -11.808000 8.913000
92.649002 -18.086000 16.680000
83.690002 -16.478001 18.104000
60.924999 -11.542000 7.843000
83.750000 -15.920000 13.666000
81.473000 -15.612000 16.112000
60.923000 -11.392000 8.904000
91.077003 -17.112000 16.353001
80.930000 -15.330000 17.461000
61.813999 -11.269000 7.933000
85.193001 -15.578000 13.863000
81.552002 -15.017000 16.084000
61.237999 -11.004000 8.924000
82.849998 -14.953000 14.835000
81.041000 -14.749000 17.440001
61.872002 -10.839000 7.918000
85.898003 -15.087000 13.940000
94.699997 -16.743999 18.629000
80.973000 -13.971000 11.767000
79.825996 -13.827000 14.256000
81.264000 -14.180000 17.444000
63.030998 -10.588000 8.043000
85.783997 -14.439000 13.885000
85.978996 -14.572000 16.872000
81.570999 -13.493000 11.822000
80.309998 -13.330000 14.306000
80.939003 -13.526000 17.332001
62.786999 -10.103000 7.989000
92.459999 -14.900000 14.927000
79.060997 -12.815000 15.477000
72.387001 -11.450000 10.464000
79.891998 -12.674000 14.197000
79.234001 -12.660000 16.927000
78.445000 -12.071000 9.955000
71.791000 -11.056000 11.562000
0.000000 0.000000 0.000000
71.630997 -10.823000 10.328000
80.442001 -12.183000 14.262000
79.182999 -12.062000 16.878000
78.655998 -11.542000 9.956000
71.612000 -10.511000 11.506000
80.417000 -11.868000 15.671000
71.873001 -10.352000 10.338000
81.749001 -11.795000 14.461000
79.615997 -11.547000 16.934000
80.752998 -11.284000 10.196000
72.101997 -10.070000 11.559000
80.126999 -11.238000 15.581000
81.676003 -11.180000 11.721000
80.224998 -10.993000 14.160000
79.801003 -10.993000 16.938999
80.801003 -10.726000 10.177000
72.151001 -9.566000 11.542000
79.190002 -10.536000 15.368000
80.740997 -10.484000 11.561000
78.541000 -10.203000 13.835000
78.969002 -10.297000 16.729000
79.197998 -9.954000 9.952000
78.883003 -9.893000 12.592000
78.518997 -9.884000 15.208000
80.769997 -9.922000 11.541000
79.710999 -9.788000 14.014000
79.095001 -9.741000 16.725000
79.335999 -9.420000 9.948000
71.936996 -8.515000 11.461000
79.057999 -9.377000 15.283000
71.817001 -8.313000 10.241000
79.307999 -9.167000 13.916000
79.247002 -9.188000 16.726999
52.172001 -5.832000 6.528000
51.851002 -5.773000 8.246000
51.629002 -5.755000 9.963000
51.821999 -5.637000 7.375000
51.694000 -5.610000 9.055000
51.584000 -5.604000 10.869000
52.189999 -5.468000 6.518000
52.046001 -5.426000 8.262000
51.898998 -5.415000 9.999000
52.173000 -5.312000 7.412000
52.037998 -5.280000 9.100000
51.872002 -5.263000 10.913000
52.238998 -5.113000 6.512000
51.709999 -5.027000 8.195000
51.564999 -5.008000 9.919000
52.301998 -4.956000 7.417000
52.185001 -4.924000 9.111000
52.022999 -4.906000 10.928000
52.452000 -4.773000 6.527000
52.186001 -4.709000 8.257000
52.077000 -4.689000 10.003000
52.556999 -4.617000 7.441000
52.254002 -4.561000 9.110000
51.952999 -4.522000 10.899000
52.080002 -4.375000 6.470000
51.790001 -4.310000 8.182000
51.431999 -4.267000 9.865000
51.382999 -4.158000 7.264000
51.152000 -4.106000 8.905000
50.859001 -4.064000 10.655000
50.995998 -3.934000 6.325000
50.666000 -3.861000 7.994000
50.290001 -3.812000 9.634000
50.297001 -3.718000 7.101000
50.077999 -3.667000 8.707000
49.783001 -3.624000 10.417000
49.941002 -3.511000 6.186000
48.080002 -3.331000 7.577000
47.973999 -3.298000 9.180000
48.209999 -3.231000 6.798000
48.084999 -3.183000 8.351000
47.956001 -3.145000 10.024000
48.349998 -3.064000 5.981000
48.589001 -3.026000 7.648000
48.314999 -2.982000 9.235000
48.328999 -2.907000 6.806000
47.969002 -2.840000 8.322000
47.759998 -2.793000 9.973000
47.990002 -2.714000 5.929000
47.678001 -2.638000 7.496000
43.699001 -2.385000 8.345000
43.801998 -2.329000 6.162000
43.542000 -2.272000 7.547000
43.445999 -2.233000 9.064000
43.863998 -2.181000 5.414000
43.771000 -2.119000 6.876000
43.675999 -2.077000 8.333000
43.891998 -2.033000 6.169000
43.750000 -1.977000 7.576000
43.659000 -1.931000 9.101000
43.987999 -1.883000 5.424000
43.882000 -1.819000 6.888000
43.807999 -1.776000 8.352000
44.002998 -1.737000 6.179000
43.877998 -1.678000 7.592000
43.777000 -1.627000 9.120000
44.098999 -1.588000 5.433000
43.997002 -1.518000 6.900000
43.334000 -1.449000 8.256000
44.130001 -1.435000 6.193000
43.842999 -1.369000 7.582000
42.734001 -1.287000 8.897000
44.410999 -1.298000 5.467000
43.022999 -1.189000 6.743000
43.882000 -1.161000 8.356000
42.560001 -1.093000 5.968000
43.687000 -1.060000 7.551000
42.875000 -0.984000 8.922000
43.693001 -0.978000 5.375000
43.412998 -0.898000 6.801000
43.063999 -0.839000 8.196000
42.360001 -0.799000 5.937000
42.923000 -0.744000 7.415000
42.542999 -0.676000 8.849000
41.688999 -0.648000 5.126000
42.645000 -0.587000 6.678000
42.321999 -0.524000 8.052000
42.467999 -0.509000 5.950000
42.155998 -0.437000 7.280000
41.854000 -0.371000 8.703000
42.098999 -0.370000 5.175000
41.877998 -0.289000 6.556000
41.591999 -0.225000 7.911000
41.752998 -0.213000 5.848000
41.431000 -0.140000 7.153000
41.125999 -0.071000 8.550000
41.268002 -0.081000 5.071000
39.869999 0.000000 6.240000
39.722000 0.061000 7.554000
39.894001 0.067000 5.586000
39.826000 0.139000 6.875000
39.751999 0.210000 8.264000
40.004002 0.193000 4.915000
39.918999 0.275000 6.247000
38.695999 0.333000 7.358000
40.077999 0.342000 5.611000
40.058998 0.419000 6.915000
39.733002 0.489000 8.260000
40.025002 0.464000 4.917000
39.689999 0.546000 6.212000
38.279999 0.595000 7.280000
39.731998 0.612000 5.563000
39.408001 0.686000 6.803000
39.112000 0.760000 8.131000
38.320000 0.706000 4.708000
39.066002 0.808000 6.114000
37.688000 0.849000 7.168000
38.386002 0.853000 5.376000
38.792000 0.943000 6.698000
38.480999 1.018000 8.002000
38.754002 0.977000 4.762000
35.594002 0.981000 5.572000
35.338001 1.046000 6.723000
35.518002 1.033000 4.975000
35.258999 1.103000 6.089000
35.348000 1.183000 7.353000
35.375000 1.131000 4.348000
35.478001 1.221000 5.556000
35.403999 1.294000 6.737000
35.549000 1.277000 4.981000
35.484001 1.356000 6.130000
35.449001 1.439000 7.376000
35.633999 1.383000 4.382000
35.577999 1.471000 5.573000
35.513000 1.545000 6.761000
35.655998 1.523000 4.998000
35.564999 1.605000 6.147000
35.551998 1.693000 7.401000
35.744999 1.630000 4.398000
35.659000 1.720000 5.589000
35.612999 1.801000 6.784000
35.759998 1.773000 5.015000
35.715000 1.860000 6.176000
35.641998 1.950000 7.424000
35.834999 1.876000 4.411000
35.764000 1.971000 5.609000
35.533001 2.045000 6.773000
35.695999 2.015000 5.010000
35.896000 2.120000 6.212000
35.570000 2.197000 7.414000
35.974998 2.129000 4.431000
35.726002 2.216000 5.607000
35.441002 2.292000 6.760000
35.678001 2.260000 5.012000
35.381001 2.337000 6.128000
35.032001 2.414000 7.308000
35.502998 2.346000 4.378000
35.205002 2.429000 5.530000
34.905998 2.502000 6.664000
35.139999 2.468000 4.940000
34.862000 2.546000 6.042000
34.470001 2.620000 7.196000
35.005001 2.550000 4.320000
34.699001 2.633000 5.456000
34.394001 2.705000 6.572000
34.648998 2.671000 4.876000
34.341999 2.747000 5.958000
33.585999 2.790000 7.019000
34.498001 2.749000 4.262000
34.171001 2.830000 5.378000
33.898998 2.905000 6.483000
34.129002 2.864000 4.808000
33.891998 2.945000 5.886000
32.710999 2.948000 6.843000
34.042000 2.945000 4.210000
33.756001 3.029000 5.318000
33.448002 3.102000 6.404000
33.715000 3.061000 4.754000
25.600000 2.404000 4.451000
32.041000 3.116000 6.710000
25.760000 2.403000 3.190000
25.528000 2.466000 4.027000
32.953999 3.286000 6.317000
25.518000 2.492000 3.603000
25.278000 2.550000 4.400000
31.724001 3.310000 6.652000
25.424000 2.546000 3.152000
25.183001 2.608000 3.977000
31.576000 3.372000 6.060000
25.165001 2.630000 3.558000
24.948000 2.690000 4.348000
31.354000 3.493000 6.582000
25.096001 2.685000 3.116000
24.861000 2.747000 3.932000
31.530001 3.590000 6.060000
24.837000 2.767000 3.516000
24.608000 2.826000 4.294000
31.476000 3.732000 6.616000
24.773001 2.819000 3.080000
24.527000 2.880000 3.884000
31.659000 3.826000 6.093000
24.527000 2.902000 3.477000
24.278999 2.958000 4.244000
31.113001 3.909000 6.549000
24.455000 2.951000 3.045000
24.216000 3.012000 3.840000
31.233999 3.996000 6.019000
24.205000 3.030000 3.437000
23.992001 3.091000 4.200000
30.832001 4.094000 6.500000
24.150000 3.080000 3.013000
23.920000 3.142000 3.800000
30.872000 4.167000 5.958000
23.900999 3.158000 3.399000
23.672001 3.216000 4.150000
30.540001 4.274000 6.449000
23.830999 3.202000 2.978000
23.618000 3.266000 3.758000
30.465000 4.329000 5.890000
23.603001 3.282000 3.363000
23.360001 3.338000 4.102000
30.127001 4.431000 6.372000
23.525999 3.323000 2.945000
23.306999 3.386000 3.715000
30.049999 4.484000 5.819000
23.306000 3.402000 3.326000
23.073999 3.459000 4.059000
29.719999 4.584000 6.297000
23.240000 3.443000 2.915000
23.024000 3.506000 3.676000
22.792000 3.562000 4.421000
23.018999 3.520000 3.291000
22.783001 3.576000 4.015000
27.135000 4.382000 5.759000
22.948999 3.557000 2.884000
22.735001 3.621000 3.637000
22.528999 3.681000 4.379000
22.738001 3.636000 3.257000
22.510000 3.693000 3.974000
27.065001 4.564000 5.755000
22.659000 3.670000 2.853000
22.443001 3.733000 3.597000
22.253000 3.796000 4.333000
22.448999 3.745000 3.222000
22.233000 3.804000 3.933000
27.145000 4.774000 5.784000
22.399000 3.783000 2.826000
22.177000 3.844000 3.562000
21.969000 3.904000 4.286000
22.181999 3.856000 3.190000
21.951000 3.912000 3.890000
27.235001 4.987000 5.814000
22.121000 3.888000 2.797000
21.908001 3.951000 3.526000
21.698000 4.011000 4.242000
21.910000 3.962000 3.158000
21.698999 4.021000 3.854000
27.207001 5.178000 5.820000
21.860001 3.995000 2.770000
21.643000 4.057000 3.490000
21.426001 4.115000 4.197000
21.650999 4.066000 3.127000
21.429001 4.123000 3.814000
26.747000 5.285000 5.734000
21.610001 4.100000 2.745000
21.392000 4.161000 3.457000
21.173000 4.218000 4.156000
21.393999 4.168000 3.097000
21.181999 4.227000 3.778000
27.284000 5.590000 5.861000
21.358000 4.201000 2.719000
21.143000 4.262000 3.425000
20.929001 4.321000 4.118000
21.153999 4.271000 3.069000
20.948000 4.331000 3.745000
26.985001 5.725000 5.809000
21.115000 4.301000 2.694000
20.909000 4.364000 3.394000
20.674000 4.419000 4.077000
20.910999 4.369000 3.041000
20.702000 4.428000 3.709000
26.672001 5.854000 5.756000
20.871000 4.397000 2.669000
20.667000 4.461000 3.363000
20.444000 4.517000 4.040000
20.681999 4.467000 3.014000
20.462999 4.524000 3.674000
26.379000 5.984000 5.705000
20.636000 4.492000 2.646000
20.430000 4.555000 3.332000
20.231001 4.617000 4.008000
20.455999 4.564000 2.989000
20.237000 4.620000 3.643000
26.063999 6.103000 5.650000
20.419001 4.589000 2.624000
20.200001 4.649000 3.302000
19.990999 4.709000 3.969000
20.219000 4.654000 2.961000
20.011999 4.713000 3.611000
25.785999 6.229000 5.604000
20.191000 4.681000 2.602000
19.976999 4.741000 3.274000
19.771000 4.801000 3.935000
20.006001 4.748000 2.937000
19.794001 4.805000 3.580000
25.454000 6.337000 5.545000
19.973000 4.771000 2.580000
19.763000 4.832000 3.247000
19.549999 4.890000 3.901000
19.782000 4.836000 2.912000
19.566000 4.893000 3.548000
25.156000 6.449000 5.494000
19.759001 4.860000 2.558000
19.558001 4.923000 3.220000
19.339001 4.980000 3.868000
19.566000 4.923000 2.887000
19.360001 4.981000 3.519000
24.895000 6.568000 5.451000
19.538000 4.945000 2.537000
19.339001 5.008000 3.193000
19.247999 5.098000 3.859000
19.357000 5.010000 2.863000
19.216999 5.085000 3.501000
24.615000 6.678000 5.402000
19.329000 5.030000 2.516000
19.165001 5.102000 3.172000
19.344999 5.267000 3.890000
19.145000 5.093000 2.839000
19.283001 5.243000 3.522000
24.334999 6.783000 5.355000
19.129000 5.115000 2.496000
19.232000 5.260000 3.191000
19.402000 5.427000 3.910000
19.188999 5.243000 2.853000
19.351999 5.405000 3.544000
24.086000 6.895000 5.314000
19.159000 5.260000 2.507000
19.306999 5.421000 3.212000
19.466999 5.590000 3.933000
19.264999 5.403000 2.871000
19.424999 5.569000 3.566000
23.160999 6.806000 5.123000
19.222000 5.416000 2.522000
19.375999 5.582000 3.232000
19.548000 5.759000 3.961000
19.347000 5.567000 2.891000
19.503000 5.735000 3.590000
23.254000 7.008000 5.157000
19.294001 5.576000 2.537000
19.455999 5.748000 3.253000
19.587999 5.918000 3.978000
19.398001 5.722000 2.906000
19.565001 5.898000 3.611000
23.308001 7.201000 5.183000
19.357000 5.734000 2.552000
19.527000 5.913000 3.273000
23.228001 7.192000 4.730000
19.457001 5.883000 2.922000
23.361000 7.217000 4.322000
23.066000 7.303000 5.142000
19.421000 5.893000 2.567000
23.370001 7.249000 3.928000
22.955999 7.281000 4.688000
23.326000 7.224000 3.513000
23.150000 7.324000 4.294000
22.846001 7.407000 5.107000
23.350000 7.256000 3.094000
23.094000 7.335000 3.891000
22.702000 7.372000 4.647000
23.049999 7.307000 3.480000
22.879999 7.411000 4.256000
22.607000 7.503000 5.068000
23.142000 7.361000 3.075000
22.875000 7.435000 3.864000
22.485001 7.472000 4.615000
22.820000 7.403000 3.453000
22.643000 7.505000 4.222000
22.337000 7.586000 5.020000
22.292000 7.252000 2.969000
22.662001 7.535000 3.838000
22.288000 7.576000 4.587000
22.587000 7.494000 3.427000
22.419001 7.598000 4.190000
22.139000 7.688000 4.988000
22.024000 7.327000 2.940000
22.431999 7.627000 3.808000
22.091000 7.679000 4.558000
21.843000 7.409000 3.323000
22.211000 7.696000 4.163000
21.913000 7.780000 4.951000
22.438000 7.631000 3.003000
22.214001 7.719000 3.780000
21.903000 7.780000 4.530000
21.586000 7.483000 3.291000
21.992001 7.788000 4.131000
21.705999 7.876000 4.917000
22.218000 7.720000 2.981000
21.374001 7.588000 3.647000
21.702999 7.876000 4.501000
21.872000 7.745000 3.343000
21.781000 7.878000 4.102000
21.478001 7.960000 4.878000
22.006001 7.810000 2.958000
21.139000 7.665000 3.615000
21.487000 7.965000 4.467000
21.670000 7.837000 3.319000
20.955000 7.739000 3.957000
21.280001 8.053000 4.846000
21.806000 7.901000 2.938000
21.534000 7.971000 3.691000
20.849001 7.889000 4.345000
21.414000 7.904000 3.287000
20.743000 7.821000 3.925000
21.035000 8.126000 4.802000
21.596001 7.986000 2.916000
21.329000 8.057000 3.666000
20.506001 7.919000 4.285000
21.200001 7.985000 3.262000
21.131001 8.129000 4.008000
20.362000 8.026000 4.660000
21.384001 8.067000 2.893000
21.134001 8.145000 3.639000
20.330000 8.010000 4.258000
21.014000 8.075000 3.240000
20.957001 8.224000 3.986000
20.066000 8.068000 4.605000
21.179001 8.149000 2.872000
20.944000 8.232000 3.615000
20.655001 8.298000 4.336000
20.841000 8.166000 3.220000
20.743999 8.301000 3.953000
18.879999 7.741000 4.342000
20.979000 8.231000 2.850000
20.716999 8.302000 3.584000
18.900000 7.742000 3.978000
20.701000 8.268000 3.206000
18.948999 7.729000 3.619000
18.698999 7.815000 4.311000
20.775999 8.307000 2.827000
18.965000 7.746000 3.287000
18.724001 7.818000 3.949000
19.007999 7.738000 2.949000
18.774000 7.805000 3.595000
18.851000 8.030000 4.358000
19.011000 7.744000 2.591000
18.788000 7.818000 3.263000
18.886000 8.034000 3.992000
18.848000 7.816000 2.929000
18.914000 8.011000 3.628000
18.929001 8.215000 4.385000
18.849001 7.823000 2.574000
18.930000 8.024000 3.295000
18.961000 8.216000 4.018000
18.948000 8.002000 2.950000
18.990999 8.192000 3.650000
18.997000 8.397000 4.411000
19.007999 8.033000 2.599000
19.007999 8.206000 3.314000
19.045000 8.405000 4.044000
19.052000 8.194000 2.971000
19.049000 8.366000 3.669000
19.082001 8.588000 4.441000
19.079000 8.208000 2.613000
19.073000 8.381000 3.331000
19.118999 8.589000 4.068000
19.110001 8.366000 2.985000
19.132000 8.554000 3.692000
19.034000 8.721000 4.439000
19.153999 8.388000 2.626000
19.157000 8.568000 3.352000
19.083000 8.726000 4.069000
19.180000 8.544000 3.000000
19.146000 8.711000 3.701000
19.115999 8.913000 4.468000
19.216999 8.563000 2.638000
19.153000 8.717000 3.356000
19.184999 8.926000 4.098000
19.211000 8.709000 3.009000
19.222000 8.898000 3.723000
18.892000 8.963000 4.425000
19.219999 8.711000 2.641000
19.232000 8.903000 3.375000
18.973000 8.979000 4.060000
19.229000 8.865000 3.016000
19.061001 8.975000 3.697000
18.702000 9.025000 4.388000
19.316000 8.905000 2.657000
19.080000 8.983000 3.354000
18.837000 9.067000 4.039000
19.139999 8.973000 3.005000
18.907000 9.052000 3.672000
18.518000 9.087000 4.353000
19.146999 8.974000 2.636000
18.913000 9.054000 3.328000
18.658001 9.132000 4.006000
18.955000 9.036000 2.979000
18.700001 9.103000 3.638000
18.316999 9.139000 4.314000
18.988001 9.046000 2.615000
18.723000 9.110000 3.298000
18.476000 9.192000 3.973000
18.798000 9.107000 2.957000
18.573999 9.191000 3.617000
18.135000 9.198000 4.278000
18.790001 9.100000 2.589000
18.607000 9.201000 3.282000
18.340000 9.273000 3.950000
18.631001 9.172000 2.932000
18.396000 9.249000 3.587000
17.983000 9.268000 4.249000
18.665001 9.183000 2.573000
18.414000 9.253000 3.250000
18.141001 9.321000 3.912000
18.471001 9.239000 2.908000
18.243000 9.319000 3.562000
17.855000 9.349000 4.225000
18.478001 9.234000 2.547000
18.271999 9.326000 3.227000
18.021999 9.405000 3.890000
18.327999 9.312000 2.887000
18.066000 9.374000 3.529000
17.737000 9.434000 4.202000
18.351999 9.316000 2.529000
18.096001 9.381000 3.199000
17.836000 9.454000 3.855000
18.149000 9.363000 2.860000
17.938000 9.451000 3.507000
17.608999 9.511000 4.177000
18.174999 9.368000 2.504000
17.958000 9.453000 3.175000
17.716000 9.535000 3.832000
18.025000 9.442000 2.840000
17.764000 9.503000 3.476000
17.466999 9.580000 4.149000
18.042000 9.440000 2.484000
17.790001 9.506000 3.146000
17.527000 9.576000 3.794000
17.837000 9.484000 2.810000
17.641001 9.580000 3.453000
17.351999 9.660000 4.125000
17.868000 9.490000 2.459000
17.667000 9.581000 3.125000
17.393999 9.646000 3.769000
17.716000 9.560000 2.790000
17.448999 9.615000 3.416000
17.190001 9.711000 4.089000
17.735001 9.557000 2.438000
17.483999 9.622000 3.092000
17.252001 9.709000 3.739000
17.590000 9.632000 2.768000
17.337000 9.694000 3.396000
17.059000 9.780000 4.063000
17.607000 9.625000 2.417000
17.365999 9.695000 3.070000
17.118000 9.772000 3.711000
17.412001 9.671000 2.738000
17.177999 9.745000 3.363000
16.898001 9.828000 4.025000
17.434999 9.670000 2.390000
17.211000 9.746000 3.042000
16.980000 9.833000 3.683000
17.295000 9.742000 2.717000
17.041000 9.803000 3.336000
16.753000 9.881000 3.992000
17.318001 9.740000 2.370000
17.055000 9.795000 3.011000
16.820999 9.878000 3.648000
17.128000 9.785000 2.687000
16.910999 9.865000 3.310000
16.652000 9.959000 3.969000
17.152000 9.780000 2.342000
16.929001 9.857000 2.986000
16.698000 9.942000 3.620000
16.993999 9.842000 2.662000
16.782000 9.925000 3.282000
16.511999 10.013000 3.936000
17.018999 9.838000 2.319000
16.750999 9.887000 2.952000
16.584000 10.008000 3.594000
16.882000 9.909000 2.640000
16.618000 9.962000 3.247000
16.351000 10.050000 3.897000
16.903000 9.903000 2.297000
16.580000 9.918000 2.917000
16.423000 10.045000 3.557000
16.750999 9.965000 2.614000
16.546000 10.051000 3.230000
16.254999 10.124000 3.873000
16.782000 9.962000 2.274000
16.386000 9.932000 2.878000
16.315001 10.112000 3.531000
16.612000 10.013000 2.587000
16.400000 10.094000 3.197000
16.112000 10.169000 3.837000
16.638000 10.008000 2.247000
16.264999 9.987000 2.853000
16.205000 10.174000 3.504000
16.466999 10.054000 2.557000
16.247000 10.129000 3.162000
15.971000 10.209000 3.801000
16.518000 10.063000 2.223000
16.120001 10.026000 2.820000
16.077000 10.224000 3.472000
16.382999 10.132000 2.537000
16.120001 10.178000 3.133000
15.867000 10.272000 3.773000
16.403000 10.119000 2.199000
16.013000 10.085000 2.795000
15.948000 10.269000 3.439000
16.246000 10.173000 2.508000
15.997000 10.228000 3.102000
15.732000 10.313000 3.736000
16.284000 10.173000 2.174000
15.932000 10.159000 2.774000
15.808000 10.305000 3.403000
16.120001 10.218000 2.480000
15.875000 10.274000 3.071000
15.629000 10.371000 3.707000
16.150999 10.213000 2.146000
15.876000 10.248000 2.755000
15.679000 10.347000 3.369000
15.975000 10.251000 2.448000
15.785000 10.340000 3.047000
15.514000 10.418000 3.674000
16.033001 10.260000 2.120000
15.814000 10.330000 2.736000
15.572000 10.399000 3.339000
15.852000 10.293000 2.419000
15.676000 10.391000 3.016000
14.903000 10.128000 3.522000
15.874000 10.281000 2.087000
15.710000 10.383000 2.709000
14.974000 10.116000 3.203000
15.757000 10.351000 2.394000
15.492000 10.389000 2.972000
14.998000 10.311000 3.538000
15.795000 10.348000 2.065000
15.599000 10.429000 2.678000
14.944000 10.213000 3.188000
15.654000 10.402000 2.366000
14.943000 10.136000 2.858000
14.986000 10.420000 3.527000
15.683000 10.392000 2.037000
14.990000 10.135000 2.563000
15.050000 10.401000 3.201000
15.060000 10.120000 2.264000
15.058000 10.328000 2.868000
15.067000 10.593000 3.536000
15.098000 10.118000 1.948000
15.048000 10.288000 2.562000
15.150000 10.586000 3.211000
15.004000 10.195000 2.244000
15.046000 10.433000 2.854000
14.965000 10.636000 3.502000
14.999000 10.161000 1.921000
15.071000 10.417000 2.552000
15.059000 10.637000 3.180000
15.125000 10.390000 2.248000
15.111000 10.592000 2.855000
14.848000 10.666000 3.464000
15.148000 10.373000 1.926000
15.182000 10.605000 2.557000
14.941000 10.665000 3.143000
15.225000 10.569000 2.248000
15.007000 10.629000 2.821000
14.773000 10.724000 3.434000
15.245000 10.551000 1.922000
15.090000 10.652000 2.527000
14.849000 10.708000 3.111000
15.136000 10.616000 2.219000
14.880000 10.647000 2.783000
14.674000 10.759000 3.398000
15.169000 10.607000 1.896000
14.982000 10.683000 2.494000
14.750000 10.745000 3.076000
15.035000 10.654000 2.188000
14.734000 10.650000 2.740000
14.604000 10.815000 3.369000
15.052000 10.631000 1.864000
14.879000 10.715000 2.460000
14.654000 10.780000 3.041000
14.941000 10.692000 2.157000
14.593000 10.651000 2.699000
14.504000 10.846000 3.331000
14.963000 10.674000 1.835000
14.787000 10.753000 2.427000
14.562000 10.815000 3.006000
14.844000 10.725000 2.126000
14.551000 10.722000 2.674000
14.418000 10.882000 3.295000
14.882000 10.719000 1.806000
14.700000 10.791000 2.396000
14.462000 10.842000 2.969000
14.762000 10.768000 2.095000
14.511000 10.792000 2.648000
14.318000 10.905000 3.256000
14.804000 10.762000 1.777000
14.600000 10.817000 2.361000
14.398000 10.892000 2.938000
14.676000 10.803000 2.063000
14.453000 10.846000 2.620000
14.230000 10.935000 3.218000
14.731000 10.808000 1.748000
14.509000 10.846000 2.326000
14.336000 10.940000 2.907000
14.610000 10.851000 2.034000
14.382000 10.887000 2.588000
14.163000 10.976000 3.184000
14.641000 10.837000 1.716000
14.450000 10.896000 2.297000
14.247000 10.965000 2.869000
14.515000 10.875000 1.999000
14.332000 10.942000 2.558000
14.087000 11.008000 3.148000
14.550000 10.863000 1.683000
14.382000 10.936000 2.265000
14.142000 10.973000 2.828000
14.430000 10.902000 1.966000
14.246000 10.965000 2.522000
14.020000 11.045000 3.113000
14.474000 10.898000 1.651000
14.287000 10.953000 2.227000
14.101000 11.028000 2.798000
14.367000 10.943000 1.935000
14.162000 10.987000 2.485000
13.915000 11.046000 3.068000
14.419000 10.944000 1.622000
14.200000 10.972000 2.192000
14.032000 11.059000 2.762000
14.302000 10.980000 1.902000
14.095000 11.019000 2.449000
13.899000 11.115000 3.042000
14.349000 10.977000 1.590000
14.164000 11.027000 2.163000
13.926000 11.056000 2.718000
14.205000 10.989000 1.865000
14.052000 11.067000 2.420000
13.811000 11.124000 3.000000
14.255000 10.988000 1.554000
14.085000 11.047000 2.125000
13.800000 11.033000 2.670000
14.134000 11.013000 1.831000
13.964000 11.075000 2.380000
13.741000 11.143000 2.960000
14.186000 11.015000 1.521000
14.002000 11.060000 2.089000
13.724000 11.047000 2.630000
14.113000 11.075000 1.802000
13.909000 11.106000 2.344000
13.697000 11.179000 2.926000
14.130000 11.048000 1.488000
13.977000 11.114000 2.059000
13.691000 11.092000 2.599000
14.026000 11.080000 1.765000
13.859000 11.138000 2.310000
13.631000 11.194000 2.885000
13.950000 10.982000 1.442000
13.891000 11.116000 2.018000
13.701000 11.168000 2.574000
13.971000 11.109000 1.731000
13.774000 11.139000 2.270000
13.600000 11.233000 2.852000
13.666000 10.827000 1.385000
13.866000 11.164000 1.988000
13.652000 11.193000 2.537000
13.923000 11.139000 1.696000
13.751000 11.185000 2.237000
13.537000 11.243000 2.811000
13.471000 10.739000 1.338000
13.787000 11.165000 1.948000
13.623000 11.230000 2.504000
13.856000 11.151000 1.660000
13.683000 11.191000 2.198000
13.498000 11.269000 2.774000
13.393000 10.739000 1.302000
13.759000 11.205000 1.914000
13.564000 11.239000 2.464000
13.815000 11.179000 1.625000
13.668000 11.237000 2.167000
13.441000 11.276000 2.733000
13.364000 10.775000 1.270000
13.688000 11.205000 1.876000
13.530000 11.265000 2.428000
13.770000 11.201000 1.590000
13.595000 11.231000 2.124000
13.398000 11.289000 2.694000
13.428000 10.883000 1.247000
13.665000 11.240000 1.842000
13.505000 11.295000 2.393000
13.721000 11.216000 1.554000
13.568000 11.260000 2.090000
13.293000 11.248000 2.642000
13.636000 11.107000 1.235000
13.597000 11.234000 1.801000
13.450000 11.295000 2.352000
13.688000 11.240000 1.519000
13.544000 11.287000 2.055000
13.220000 11.228000 2.596000
13.730000 11.235000 1.212000
13.578000 11.267000 1.768000
13.422000 11.315000 2.315000
13.629000 11.239000 1.480000
13.481000 11.278000 2.012000
13.235000 11.279000 2.567000
13.669000 11.232000 1.174000
13.558000 11.293000 1.733000
13.394000 11.330000 2.278000
13.571000 11.235000 1.441000
13.462000 11.301000 1.977000
13.279000 11.351000 2.542000
13.644000 11.256000 1.138000
13.506000 11.289000 1.692000
13.345000 11.323000 2.236000
13.308000 11.057000 1.381000
13.452000 11.329000 1.943000
13.256000 11.363000 2.503000
13.627000 11.282000 1.104000
13.491000 11.313000 1.658000
13.336000 11.347000 2.200000
13.097000 10.917000 1.325000
13.403000 11.319000 1.901000
13.232000 11.369000 2.465000
13.584000 11.284000 1.067000
13.471000 11.327000 1.621000
13.326000 11.365000 2.164000
13.030000 10.893000 1.287000
13.373000 11.322000 1.863000
13.224000 11.384000 2.428000
13.555000 11.292000 1.029000
13.436000 11.326000 1.581000
13.306000 11.371000 2.126000
13.029000 10.920000 1.253000
13.362000 11.336000 1.827000
13.231000 11.409000 2.393000
13.550000 11.317000 0.995000
13.407000 11.326000 1.544000
13.276000 11.365000 2.085000
13.148000 11.044000 1.230000
13.363000 11.357000 1.790000
13.221000 11.415000 2.355000
13.539000 11.333000 0.959000
13.393000 11.334000 1.507000
13.267000 11.371000 2.048000
13.355000 11.238000 1.215000
13.359000 11.369000 1.755000
13.219000 11.423000 2.318000
13.505000 11.326000 0.920000
13.387000 11.344000 1.469000
13.259000 11.375000 2.010000
13.425000 11.315000 1.186000
13.344000 11.369000 1.717000
13.211000 11.422000 2.279000
13.478000 11.322000 0.884000
13.368000 11.341000 1.432000
13.262000 11.383000 1.973000
13.436000 11.337000 1.150000
13.320000 11.355000 1.676000
13.197000 11.412000 2.239000
13.464000 11.323000 0.847000
13.262000 11.259000 1.385000
13.266000 11.390000 1.937000
13.433000 11.344000 1.114000
13.325000 11.364000 1.641000
13.204000 11.416000 2.202000
13.457000 11.327000 0.809000
12.967000 11.012000 1.317000
13.269000 11.390000 1.900000
13.432000 11.347000 1.078000
13.325000 11.363000 1.604000
13.227000 11.428000 2.168000
13.459000 11.334000 0.774000
12.898000 10.954000 1.276000
13.276000 11.390000 1.863000
13.437000 11.353000 1.040000
13.335000 11.367000 1.566000
13.223000 11.415000 2.129000
13.464000 11.340000 0.738000
12.909000 10.959000 1.241000
13.284000 11.387000 1.826000
13.438000 11.351000 1.004000
13.345000 11.367000 1.531000
13.246000 11.419000 2.093000
13.472000 11.345000 0.701000
13.110000 11.122000 1.223000
13.288000 11.378000 1.789000
13.443000 11.348000 0.968000
13.368000 11.375000 1.496000
13.247000 11.402000 2.054000
13.476000 11.342000 0.665000
13.359000 11.321000 1.210000
13.297000 11.367000 1.751000
13.451000 11.344000 0.930000
13.380000 11.369000 1.458000
13.250000 11.382000 2.016000
13.474000 11.329000 0.628000
13.404000 11.344000 1.177000
13.331000 11.374000 1.717000
13.459000 11.337000 0.895000
13.384000 11.351000 1.422000
13.261000 11.365000 1.978000
13.487000 11.326000 0.591000
13.418000 11.335000 1.139000
13.366000 11.378000 1.683000
13.475000 11.331000 0.859000
13.271000 11.231000 1.372000
13.286000 11.355000 1.943000
13.505000 11.323000 0.556000
13.440000 11.330000 1.105000
13.380000 11.360000 1.646000
13.495000 11.325000 0.822000
13.022000 10.993000 1.309000
13.342000 11.369000 1.912000
13.548000 11.338000 0.521000
13.471000 11.329000 1.070000
13.391000 11.336000 1.609000
13.546000 11.342000 0.789000
12.973000 10.921000 1.268000
13.362000 11.347000 1.875000
13.575000 11.334000 0.485000
13.526000 11.343000 1.036000
13.424000 11.327000 1.575000
13.568000 11.330000 0.754000
13.024000 10.930000 1.237000
13.392000 11.331000 1.840000
13.595000 11.321000 0.450000
13.544000 11.322000 1.001000
13.491000 11.342000 1.543000
13.584000 11.309000 0.717000
13.260000 11.088000 1.221000
13.450000 11.335000 1.809000
13.610000 11.301000 0.414000
13.561000 11.298000 0.965000
13.503000 11.307000 1.507000
13.601000 11.285000 0.682000
13.491000 11.239000 1.206000
13.487000 11.316000 1.774000
13.635000 11.284000 0.378000
13.608000 11.295000 0.931000
13.541000 11.291000 1.472000
13.667000 11.299000 0.649000
13.615000 11.296000 1.180000
13.507000 11.280000 1.739000
13.694000 11.292000 0.345000
13.647000 11.281000 0.898000
13.594000 11.284000 1.441000
13.686000 11.270000 0.613000
13.638000 11.264000 1.144000
13.592000 11.295000 1.710000
13.714000 11.264000 0.310000
13.668000 11.249000 0.863000
13.455000 11.114000 1.390000
13.706000 11.238000 0.579000
13.678000 11.244000 1.112000
13.611000 11.252000 1.675000
13.739000 11.237000 0.275000
13.737000 11.252000 0.830000
13.222000 10.864000 1.328000
13.781000 11.247000 0.547000
13.744000 11.241000 1.081000
13.690000 11.254000 1.647000
13.807000 11.241000 0.242000
13.771000 11.224000 0.797000
13.250000 10.829000 1.296000
13.809000 11.214000 0.512000
13.769000 11.201000 1.045000
13.721000 11.213000 1.612000
13.832000 11.207000 0.208000
13.819000 11.204000 0.765000
13.306000 10.813000 1.267000
13.868000 11.205000 0.481000
13.840000 11.195000 1.016000
13.801000 11.211000 1.585000
13.861000 11.173000 0.174000
13.880000 11.189000 0.732000
13.536000 10.932000 1.252000
13.914000 11.180000 0.448000
13.878000 11.161000 0.984000
13.831000 11.163000 1.552000
13.857000 11.108000 0.141000
13.928000 11.162000 0.701000
13.834000 11.102000 1.244000
13.967000 11.157000 0.415000
13.964000 11.159000 0.954000
13.913000 11.154000 1.524000
13.883000 11.066000 0.109000
13.998000 11.151000 0.671000
13.961000 11.130000 1.221000
14.031000 11.140000 0.384000
14.002000 11.117000 0.923000
13.957000 11.113000 1.493000
14.018000 11.106000 0.077000
14.052000 11.121000 0.639000
14.049000 11.124000 1.193000
14.109000 11.131000 0.354000
14.090000 11.112000 0.895000
13.989000 11.058000 1.462000
14.134000 11.127000 0.046000
14.117000 11.097000 0.609000
14.090000 11.077000 1.162000
14.144000 11.085000 0.321000
14.146000 11.078000 0.864000
13.782000 10.812000 1.405000
14.177000 11.087000 0.015000
14.205000 11.089000 0.581000
14.172000 11.060000 1.136000
14.229000 11.075000 0.292000
14.201000 11.040000 0.835000
13.683000 10.653000 1.361000
14.258000 11.074000 -0.016000
14.227000 11.025000 0.548000
14.254000 11.038000 1.108000
14.268000 11.026000 0.262000
14.284000 11.021000 0.807000
13.749000 10.620000 1.336000
14.295000 11.024000 -0.045000
14.325000 11.019000 0.522000
14.305000 10.992000 1.079000
14.331000 10.992000 0.232000
14.364000 10.997000 0.779000
13.843000 10.605000 1.312000
14.383000 11.010000 -0.075000
14.418000 11.004000 0.494000
14.388000 10.966000 1.054000
14.349000 10.922000 0.203000
14.413000 10.945000 0.751000
14.049000 10.673000 1.299000
14.476000 10.996000 -0.106000
14.464000 10.951000 0.464000
14.477000 10.941000 1.027000
14.370000 10.852000 0.174000
14.522000 10.939000 0.726000
14.414000 10.856000 1.302000
14.527000 10.947000 -0.134000
14.548000 10.924000 0.438000
14.576000 10.922000 1.003000
14.504000 10.864000 0.146000
14.617000 10.916000 0.700000
14.573000 10.878000 1.283000
14.598000 10.913000 -0.162000
14.635000 10.897000 0.412000
14.623000 10.861000 0.977000
14.661000 10.888000 0.120000
14.674000 10.864000 0.674000
14.682000 10.861000 1.262000
14.694000 10.892000 -0.192000
14.728000 10.871000 0.385000
14.717000 10.833000 0.952000
14.755000 10.865000 0.093000
14.759000 10.829000 0.649000
14.770000 10.825000 1.239000
14.783000 10.863000 -0.219000
14.797000 10.825000 0.359000
14.817000 10.806000 0.929000
14.824000 10.819000 0.066000
14.850000 10.796000 0.623000
14.845000 10.776000 1.215000
14.851000 10.818000 -0.246000
14.887000 10.791000 0.335000
14.913000 10.774000 0.907000
14.917000 10.788000 0.041000
14.953000 10.770000 0.600000
14.921000 10.727000 1.192000
14.929000 10.776000 -0.273000
14.989000 10.763000 0.309000
15.024000 10.749000 0.885000
15.022000 10.763000 0.015000
15.051000 10.737000 0.578000
15.024000 10.695000 1.172000
15.033000 10.750000 -0.299000
15.064000 10.715000 0.285000
15.109000 10.705000 0.862000
15.109000 10.722000 -0.010000
15.145000 10.698000 0.554000
15.126000 10.659000 1.151000
15.140000 10.724000 -0.325000
15.102000 10.637000 0.261000
15.200000 10.661000 0.842000
15.211000 10.690000 -0.033000
15.259000 10.672000 0.532000
15.226000 10.620000 1.131000
15.227000 10.680000 -0.351000
15.144000 10.560000 0.236000
15.293000 10.616000 0.819000
15.324000 10.663000 -0.057000
15.333000 10.615000 0.511000
15.325000 10.578000 1.113000
15.341000 10.654000 -0.376000
15.268000 10.539000 0.214000
15.206000 10.446000 0.790000
15.416000 10.618000 -0.082000
15.222000 10.428000 0.482000
15.239000 10.406000 1.080000
15.441000 10.616000 -0.400000
15.281000 10.439000 0.192000
15.235000 10.355000 0.767000
15.304000 10.432000 -0.102000
15.262000 10.346000 0.460000
15.081000 10.187000 1.044000
15.338000 10.435000 -0.419000
15.243000 10.303000 0.169000
15.127000 10.171000 0.737000
15.292000 10.315000 -0.123000
15.157000 10.165000 0.435000
15.160000 10.128000 1.026000
15.311000 10.307000 -0.438000
15.192000 10.158000 0.147000
15.262000 10.150000 0.721000
15.210000 10.150000 -0.144000
15.619000 10.360000 0.425000
15.770000 10.418000 1.042000
15.237000 10.148000 -0.455000
15.794000 10.445000 0.132000
15.816000 10.401000 0.725000
15.811000 10.435000 -0.169000
15.849000 10.396000 0.409000
15.873000 10.368000 1.025000
15.849000 10.440000 -0.493000
15.923000 10.413000 0.111000
15.922000 10.351000 0.707000
15.940000 10.404000 -0.190000
15.966000 10.354000 0.392000
15.969000 10.311000 1.009000
15.981000 10.410000 -0.515000
16.023001 10.361000 0.092000
16.073999 10.331000 0.692000
16.044001 10.354000 -0.212000
16.065001 10.299000 0.373000
16.115000 10.283000 0.995000
16.080000 10.357000 -0.536000
16.143999 10.319000 0.074000
16.197001 10.288000 0.677000
16.204000 10.337000 -0.231000
16.134001 10.223000 0.355000
