# This PCD file was generated using the MATLAB® pcwrite function
# from Computer Vision Toolbox®.
# .PCD v.7 - Point Cloud Data file format
VERSION .7
FIELDS x y z
SIZE 4 4 4
TYPE F F F
COUNT 1 1 1
WIDTH 1662
HEIGHT 1
VIEWPOINT 0 0 0 1 0 0 0
POINTS 1662
DATA ascii
98.429001 -19.096001 17.139000
84.473000 -16.542000 17.649000
83.778000 -15.967000 13.154000
0.000000 0.000000 0.000000
84.556000 -16.389000 19.200001
60.666000 -11.268000 8.442000
82.837997 -15.463000 14.388000
85.765999 -16.155001 17.875999
83.345001 -15.278000 13.053000
84.051003 -15.511000 15.980000
84.233002 -15.698000 19.080999
62.025002 -11.075000 8.607000
83.609001 -14.996000 14.485000
81.550003 -14.755000 16.955000
83.862999 -14.771000 13.101000
80.653000 -14.290000 15.298000
81.679001 -14.609000 18.459999
61.799000 -10.591000 8.555000
79.866997 -13.748000 13.804000
80.918999 -14.045000 16.785000
81.571999 -13.780000 12.711000
80.835999 -13.731000 15.296000
81.859001 -14.031000 18.457001
71.973999 -11.824000 9.939000
80.375000 -13.252000 13.861000
81.584000 -13.558000 16.886999
72.653000 -11.749000 11.296000
80.069000 -13.019000 15.118000
80.541000 -13.210000 18.121000
77.762001 -12.222000 10.712000
78.695000 -12.406000 13.540000
79.265999 -12.591000 16.371000
71.842003 -11.107000 11.145000
80.356003 -12.480000 15.140000
80.496002 -12.604000 18.073999
73.028000 -10.957000 10.037000
78.665001 -11.839000 13.506000
79.848999 -12.102000 16.457001
71.322998 -10.517000 11.039000
79.164001 -11.721000 14.884000
78.890999 -11.770000 17.677000
81.684998 -11.678000 11.202000
80.648003 -11.556000 13.819000
79.446999 -11.458000 16.343000
70.953003 -9.956000 10.960000
79.231003 -11.162000 14.867000
79.583000 -11.290000 17.798000
80.748001 -10.978000 11.050000
80.396004 -10.944000 13.748000
78.967003 -10.814000 16.212999
71.922997 -9.581000 11.087000
79.661003 -10.646000 14.921000
79.690002 -10.719000 17.790001
81.255997 -10.474000 11.098000
78.637001 -10.146000 13.423000
79.067001 -10.257000 16.205000
71.073997 -8.967000 10.936000
78.386002 -9.911000 14.655000
80.422997 -10.228000 17.923000
80.422997 -9.801000 10.962000
79.828003 -9.730000 13.602000
79.487999 -9.735000 16.264000
71.398003 -8.502000 10.967000
79.599998 -9.497000 14.857000
79.990997 -9.592000 17.797001
73.122002 -8.402000 9.949000
72.679001 -8.341000 12.363000
80.067001 -9.227000 16.355000
52.085999 -5.835000 7.986000
51.813999 -5.810000 9.656000
51.675999 -5.819000 11.480000
51.884998 -5.598000 7.048000
51.722000 -5.571000 8.784000
51.592999 -5.575000 10.523000
52.063999 -5.468000 7.970000
51.910999 -5.450000 9.659000
51.764999 -5.453000 11.482000
52.207001 -5.268000 7.080000
52.074001 -5.239000 8.831000
51.926998 -5.237000 10.577000
52.192001 -5.114000 7.978000
51.799999 -5.071000 9.625000
51.542000 -5.058000 11.417000
52.353001 -4.921000 7.089000
52.216999 -4.885000 8.843000
52.070000 -4.877000 10.591000
52.333000 -4.761000 7.988000
52.155998 -4.734000 9.679000
51.903999 -4.716000 11.484000
52.612000 -4.578000 7.115000
52.312000 -4.527000 8.848000
52.078999 -4.508000 10.580000
51.999001 -4.370000 7.927000
51.680000 -4.324000 9.578000
51.455002 -4.304000 11.371000
51.502998 -4.124000 6.956000
49.345001 -3.920000 8.336000
50.964001 -4.045000 10.343000
50.889000 -3.920000 7.749000
50.633999 -3.880000 9.374000
50.363998 -3.851000 11.118000
50.431000 -3.691000 6.803000
48.330002 -3.502000 8.156000
49.867001 -3.602000 10.109000
49.847000 -3.492000 7.582000
48.025002 -3.337000 8.882000
47.805000 -3.311000 10.543000
48.240002 -3.196000 6.500000
47.801998 -3.130000 8.059000
48.016998 -3.128000 9.725000
48.250000 -3.046000 7.332000
48.542000 -3.032000 8.969000
48.120998 -2.986000 10.603000
48.422001 -2.874000 6.518000
47.868999 -2.796000 8.063000
47.873001 -2.777000 9.688000
47.862000 -2.688000 7.267000
47.566002 -2.638000 8.782000
43.680000 -2.399000 9.617000
43.841000 -2.301000 5.897000
43.563999 -2.241000 7.332000
43.391998 -2.209000 8.774000
43.756001 -2.154000 6.638000
43.665001 -2.111000 8.056000
43.570000 -2.080000 9.586000
43.897999 -2.001000 5.900000
43.769001 -1.948000 7.362000
43.694000 -1.915000 8.830000
43.890999 -1.857000 6.654000
43.768002 -1.810000 8.070000
43.685001 -1.772000 9.606000
44.016998 -1.703000 5.912000
43.898998 -1.644000 7.380000
43.827000 -1.609000 8.852000
44.009998 -1.556000 6.669000
43.528000 -1.495000 8.022000
43.805000 -1.466000 9.628000
44.129002 -1.406000 5.924000
43.605999 -1.331000 7.327000
42.986000 -1.274000 8.678000
43.098999 -1.226000 6.527000
44.048000 -1.201000 8.114000
43.784000 -1.151000 9.620000
44.027000 -1.099000 5.908000
43.750999 -1.033000 7.348000
43.446999 -0.982000 8.769000
43.354000 -0.935000 6.564000
43.236000 -0.877000 7.962000
42.077000 -0.805000 9.242000
42.005001 -0.760000 5.635000
42.962002 -0.712000 7.214000
42.669998 -0.661000 8.610000
42.700001 -0.625000 6.463000
40.916000 -0.545000 7.533000
42.231998 -0.509000 9.274000
42.492001 -0.479000 5.699000
42.230999 -0.408000 7.091000
41.909000 -0.353000 8.455000
41.936001 -0.324000 6.347000
40.514999 -0.253000 7.459000
41.462002 -0.201000 9.104000
41.769001 -0.184000 5.602000
41.507999 -0.114000 6.969000
41.181000 -0.058000 8.308000
41.049000 -0.035000 6.212000
39.661999 0.028000 7.302000
39.660999 0.088000 8.709000
39.903000 0.097000 5.352000
39.846001 0.169000 6.690000
39.743999 0.227000 8.019000
39.924000 0.241000 6.043000
39.557999 0.303000 7.283000
39.935001 0.372000 8.770000
40.132000 0.371000 5.383000
40.094002 0.448000 6.733000
39.783001 0.506000 8.028000
39.960999 0.517000 6.049000
39.505001 0.582000 7.275000
39.289001 0.648000 8.630000
39.741001 0.641000 5.332000
39.407001 0.713000 6.619000
39.164001 0.774000 7.905000
39.320999 0.779000 5.954000
39.005001 0.846000 7.185000
38.716000 0.913000 8.507000
37.971001 0.872000 5.096000
38.792000 0.974000 6.518000
38.506001 1.035000 7.775000
38.668999 1.034000 5.858000
35.470001 1.017000 6.536000
35.195000 1.080000 7.736000
35.528999 1.058000 4.771000
35.286999 1.129000 5.932000
35.335999 1.198000 7.138000
35.453999 1.192000 5.373000
35.401001 1.265000 6.527000
35.333000 1.338000 7.770000
35.574001 1.304000 4.780000
35.485001 1.381000 5.968000
35.424999 1.450000 7.160000
35.563999 1.440000 5.393000
35.507000 1.516000 6.550000
35.415001 1.592000 7.793000
35.657001 1.552000 4.794000
35.596001 1.636000 5.991000
35.535999 1.708000 7.187000
35.674999 1.692000 5.414000
35.610001 1.770000 6.573000
35.573002 1.851000 7.833000
35.772999 1.801000 4.813000
35.694000 1.887000 6.012000
35.443001 1.953000 7.174000
35.779999 1.944000 5.434000
35.599998 2.020000 6.577000
35.773998 2.119000 7.883000
35.709000 2.045000 4.809000
35.932999 2.150000 6.057000
35.000999 2.175000 7.090000
35.820999 2.193000 5.445000
35.567001 2.266000 6.577000
35.228001 2.338000 7.770000
35.674000 2.287000 4.809000
35.380001 2.364000 5.970000
33.983002 2.354000 6.890000
35.324001 2.409000 5.375000
35.041000 2.480000 6.485000
34.708000 2.550000 7.663000
35.164001 2.494000 4.746000
34.868999 2.572000 5.890000
33.557999 2.561000 6.811000
34.827999 2.615000 5.305000
34.546001 2.687000 6.401000
34.201000 2.760000 7.558000
34.667999 2.699000 4.684000
34.326000 2.772000 5.804000
33.326000 2.779000 6.771000
34.299000 2.812000 5.231000
33.999001 2.861000 6.301000
33.698002 2.937000 7.450000
34.155998 2.872000 4.615000
33.792000 2.944000 5.716000
33.207001 2.984000 6.749000
33.863998 2.990000 5.166000
33.570999 3.063000 6.229000
33.240002 3.135000 7.357000
33.685001 3.063000 4.558000
25.622000 2.410000 4.339000
33.091000 3.209000 6.734000
25.587000 2.437000 3.908000
33.082001 3.251000 6.146000
32.771000 3.326000 7.262000
25.507999 2.496000 3.456000
25.285000 2.556000 4.288000
32.648998 3.397000 6.653000
25.268000 2.581000 3.865000
32.632999 3.436000 6.071000
31.365999 3.409000 6.961000
25.174999 2.637000 3.416000
24.945999 2.697000 4.237000
31.476999 3.501000 6.423000
24.930000 2.721000 3.819000
24.798000 2.787000 4.620000
31.469999 3.646000 6.994000
24.846001 2.774000 3.377000
24.614000 2.833000 4.186000
31.785999 3.762000 6.496000
24.608999 2.858000 3.776000
24.410999 2.915000 4.555000
31.423000 3.868000 6.993000
24.521999 2.908000 3.338000
24.297001 2.968000 4.139000
31.351999 3.934000 6.417000
24.291000 2.989000 3.733000
24.101999 3.049000 4.505000
30.895000 4.027000 6.887000
24.207001 3.039000 3.302000
23.990000 3.098000 4.093000
30.966999 4.108000 6.348000
23.976999 3.119000 3.691000
23.771000 3.177000 4.450000
30.579000 4.205000 6.828000
23.893000 3.164000 3.265000
23.677000 3.225000 4.048000
30.548000 4.272000 6.274000
23.679001 3.246000 3.652000
23.455999 3.301000 4.399000
29.657000 4.294000 6.634000
23.599001 3.290000 3.230000
23.384001 3.351000 4.005000
30.132999 4.429000 6.200000
23.371000 3.367000 3.611000
23.153000 3.423000 4.350000
28.982000 4.407000 6.495000
23.297001 3.410000 3.196000
23.090000 3.471000 3.962000
29.742001 4.587000 6.130000
23.076000 3.487000 3.573000
22.864000 3.545000 4.304000
28.084999 4.475000 6.306000
23.006001 3.527000 3.162000
22.795000 3.589000 3.919000
27.143999 4.382000 5.606000
22.778999 3.603000 3.534000
22.565001 3.659000 4.256000
26.878000 4.479000 6.047000
22.712999 3.642000 3.129000
22.504000 3.704000 3.877000
27.101000 4.570000 5.609000
22.497000 3.716000 3.498000
22.283001 3.773000 4.212000
27.094999 4.714000 6.109000
22.441000 3.755000 3.098000
22.229000 3.816000 3.838000
27.190001 4.784000 5.639000
22.218000 3.828000 3.462000
22.004000 3.885000 4.168000
27.180000 4.927000 6.141000
22.163000 3.864000 3.067000
21.957001 3.926000 3.799000
27.263000 4.995000 5.667000
21.945000 3.936000 3.427000
21.724001 3.991000 4.124000
27.247999 5.140000 6.169000
21.903999 3.973000 3.038000
21.687000 4.034000 3.761000
27.348000 5.209000 5.697000
21.690001 4.044000 3.395000
21.472000 4.100000 4.086000
27.292999 5.351000 6.194000
21.632999 4.077000 3.008000
21.429001 4.138000 3.725000
26.843000 5.309000 5.604000
21.436001 4.150000 3.363000
21.209999 4.204000 4.045000
27.292000 5.551000 6.208000
21.382999 4.181000 2.981000
21.183001 4.244000 3.691000
26.712999 5.480000 5.591000
21.181000 4.251000 3.331000
20.964001 4.307000 4.007000
26.990999 5.691000 6.154000
21.141001 4.284000 2.954000
20.938000 4.346000 3.657000
26.945999 5.725000 5.653000
20.941000 4.353000 3.302000
20.723000 4.409000 3.972000
26.676001 5.823000 6.097000
20.898001 4.383000 2.928000
20.680000 4.442000 3.621000
26.667999 5.863000 5.608000
20.695999 4.451000 3.272000
20.478001 4.507000 3.934000
26.374001 5.953000 6.043000
20.653000 4.479000 2.901000
20.441000 4.539000 3.589000
26.349001 5.987000 5.555000
20.454000 4.546000 3.242000
20.261000 4.607000 3.902000
26.049999 6.076000 5.984000
20.429001 4.577000 2.877000
20.216000 4.637000 3.558000
26.007999 6.102000 5.498000
20.231001 4.642000 3.215000
20.021000 4.700000 3.866000
25.754000 6.199000 5.931000
20.197001 4.669000 2.852000
19.993000 4.731000 3.528000
25.737000 6.231000 5.454000
20.004999 4.736000 3.188000
19.795000 4.793000 3.832000
25.440001 6.315000 5.875000
19.966000 4.759000 2.828000
19.774000 4.824000 3.499000
19.620001 4.896000 4.169000
19.775000 4.824000 3.159000
19.566999 4.882000 3.798000
25.165001 6.439000 5.827000
19.750999 4.851000 2.805000
19.540001 4.911000 3.467000
19.327999 4.968000 4.118000
19.573000 4.918000 3.136000
19.358999 4.974000 3.769000
24.889999 6.556000 5.779000
19.518000 4.935000 2.780000
19.330000 5.000000 3.439000
19.299000 5.106000 4.123000
19.357000 5.006000 3.110000
19.240999 5.088000 3.756000
24.591000 6.665000 5.726000
19.327000 5.027000 2.761000
19.198000 5.108000 3.426000
24.603001 6.695000 5.271000
19.164000 5.096000 3.088000
19.330999 5.255000 3.784000
24.312000 6.776000 5.676000
19.139000 5.118000 2.741000
19.275000 5.272000 3.449000
24.327000 6.804000 5.227000
19.226999 5.254000 3.107000
19.406000 5.421000 3.809000
24.063999 6.890000 5.634000
19.201000 5.274000 2.758000
19.356001 5.438000 3.473000
24.035000 6.906000 5.179000
19.295000 5.416000 3.127000
19.454000 5.582000 3.830000
23.139000 6.804000 5.434000
19.273001 5.436000 2.777000
19.413000 5.598000 3.493000
23.216999 6.847000 5.017000
19.368000 5.580000 3.147000
19.546000 5.756000 3.859000
23.239000 7.014000 5.473000
19.341999 5.598000 2.795000
19.482000 5.766000 3.516000
23.245001 7.034000 5.038000
19.451000 5.748000 3.171000
19.605000 5.921000 3.882000
23.266001 7.202000 5.495000
19.403000 5.758000 2.812000
19.554001 5.933000 3.539000
23.285999 7.226000 5.061000
19.516001 5.914000 3.190000
23.313000 7.220000 4.629000
23.035000 7.310000 5.458000
19.469000 5.922000 2.830000
23.327999 7.254000 4.235000
23.049000 7.330000 5.024000
23.347000 7.249000 3.827000
23.087999 7.326000 4.598000
22.775000 7.407000 5.412000
23.268999 7.252000 3.392000
23.059999 7.347000 4.198000
22.771000 7.418000 4.979000
23.087000 7.342000 3.797000
22.816999 7.414000 4.557000
22.538000 7.507000 5.371000
23.045000 7.354000 3.369000
22.836000 7.450000 4.170000
22.552000 7.523000 4.945000
22.868999 7.446000 3.771000
22.617001 7.526000 4.531000
22.305000 7.605000 5.333000
22.777000 7.438000 3.340000
22.614000 7.549000 4.141000
22.323000 7.621000 4.910000
22.653000 7.547000 3.746000
22.372000 7.616000 4.495000
22.096001 7.710000 5.298000
21.959000 7.338000 3.229000
22.341000 7.631000 4.103000
22.080999 7.712000 4.872000
22.389000 7.628000 3.713000
22.141001 7.709000 4.462000
21.833000 7.791000 5.251000
21.705000 7.416000 3.201000
22.122000 7.726000 4.075000
21.839001 7.800000 4.832000
21.516001 7.497000 3.579000
21.884001 7.792000 4.423000
21.593000 7.879000 5.210000
22.094999 7.716000 3.268000
21.922001 7.825000 4.050000
21.617001 7.891000 4.797000
21.292000 7.582000 3.552000
21.674000 7.886000 4.393000
21.408001 7.984000 5.180000
21.952999 7.835000 3.256000
21.075001 7.689000 3.905000
21.436001 7.996000 4.772000
21.615000 7.862000 3.616000
21.472000 7.981000 4.365000
21.183001 8.071000 5.141000
21.739000 7.925000 3.233000
20.802999 7.751000 3.865000
21.230000 8.089000 4.740000
21.528999 7.999000 3.612000
20.653999 7.842000 4.211000
20.986000 8.166000 5.110000
21.533001 8.014000 3.212000
21.128000 8.037000 3.937000
21.011000 8.174000 4.704000
21.333000 8.091000 3.589000
20.400999 7.907000 4.171000
20.753000 8.245000 5.067000
21.288000 8.088000 3.184000
21.080999 8.186000 3.939000
20.201000 8.021000 4.536000
21.101999 8.167000 3.559000
20.784000 8.220000 4.262000
20.532000 8.325000 5.029000
21.083000 8.173000 3.161000
20.849001 8.261000 3.907000
19.989000 8.100000 4.502000
20.900999 8.255000 3.535000
20.613001 8.319000 4.239000
18.783001 7.769000 4.614000
20.900999 8.264000 3.142000
20.653000 8.346000 3.881000
18.799999 7.771000 4.246000
20.698000 8.337000 3.510000
18.850000 7.758000 3.887000
18.593000 7.846000 4.581000
20.716000 8.354000 3.122000
18.872999 7.779000 3.556000
18.629000 7.851000 4.220000
18.912001 7.766000 3.216000
18.687000 7.842000 3.864000
18.868999 8.118000 4.662000
18.924999 7.779000 2.859000
18.693001 7.853000 3.531000
18.910000 8.126000 4.296000
18.732000 7.842000 3.193000
18.915001 8.092000 3.922000
18.947001 8.309000 4.695000
18.747000 7.853000 2.839000
18.951000 8.113000 3.589000
18.976999 8.311000 4.323000
18.982000 8.097000 3.244000
18.996000 8.281000 3.949000
19.031000 8.507000 4.730000
19.013000 8.116000 2.886000
19.027000 8.301000 3.613000
19.048000 8.499000 4.351000
19.054001 8.279000 3.264000
19.062000 8.465000 3.973000
19.076000 8.687000 4.754000
19.099001 8.303000 2.906000
19.096001 8.485000 3.635000
19.113001 8.688000 4.378000
19.122999 8.464000 3.283000
19.153000 8.663000 4.002000
19.014000 8.819000 4.752000
19.163000 8.483000 2.922000
19.170000 8.673000 3.658000
19.000999 8.795000 4.363000
19.212000 8.658000 3.306000
19.007999 8.754000 3.982000
18.983999 8.968000 4.758000
19.247999 8.675000 2.941000
19.021999 8.762000 3.637000
18.891001 8.902000 4.349000
19.076000 8.750000 3.290000
19.079000 8.945000 4.007000
18.798000 9.040000 4.724000
19.097000 8.760000 2.924000
19.094999 8.953000 3.660000
18.715000 8.978000 4.320000
19.143999 8.938000 3.308000
18.910999 9.024000 3.980000
18.593000 9.100000 4.685000
19.177000 8.950000 2.941000
18.921000 9.027000 3.635000
18.535000 9.048000 4.289000
19.006001 9.028000 3.291000
18.756001 9.106000 3.957000
18.468000 9.199000 4.665000
19.009001 9.027000 2.920000
18.775999 9.113000 3.613000
18.399000 9.137000 4.267000
18.826000 9.096000 3.266000
18.563999 9.168000 3.925000
18.280001 9.263000 4.630000
18.848000 9.103000 2.900000
18.591999 9.179000 3.586000
18.257999 9.225000 4.245000
18.625999 9.154000 3.237000
18.398001 9.242000 3.897000
18.090000 9.322000 4.592000
18.639000 9.153000 2.872000
18.421000 9.247000 3.560000
18.087000 9.292000 4.214000
18.504999 9.246000 3.221000
18.228001 9.311000 3.870000
17.961000 9.414000 4.571000
18.520000 9.246000 2.857000
18.264000 9.321000 3.535000
17.966000 9.384000 4.195000
18.304001 9.296000 3.191000
18.054001 9.373000 3.840000
17.757999 9.462000 4.529000
18.327000 9.301000 2.831000
18.083000 9.381000 3.507000
17.792999 9.448000 4.163000
18.150000 9.370000 3.168000
17.899000 9.446000 3.814000
17.594999 9.528000 4.497000
18.157000 9.362000 2.808000
17.933001 9.454000 3.483000
17.674000 9.537000 4.143000
18.004000 9.444000 3.147000
17.739000 9.514000 3.787000
17.448999 9.605000 4.470000
18.014999 9.439000 2.788000
17.761000 9.513000 3.453000
17.496000 9.592000 4.109000
17.813000 9.492000 3.117000
17.590000 9.583000 3.761000
17.261000 9.653000 4.430000
17.834000 9.492000 2.762000
17.622999 9.589000 3.432000
17.346001 9.662000 4.081000
17.674999 9.567000 3.095000
17.417999 9.639000 3.728000
17.146000 9.741000 4.408000
17.705999 9.570000 2.744000
17.438999 9.637000 3.400000
17.181000 9.720000 4.049000
17.482000 9.610000 3.064000
17.263000 9.703000 3.701000
16.955999 9.785000 4.368000
17.520000 9.615000 2.715000
17.315001 9.716000 3.378000
17.041000 9.791000 4.021000
17.363001 9.690000 3.045000
17.114000 9.766000 3.674000
16.834000 9.863000 4.344000
17.402000 9.696000 2.698000
17.135000 9.762000 3.347000
16.861000 9.836000 3.985000
17.167000 9.726000 3.011000
16.968000 9.831000 3.645000
16.666000 9.914000 4.306000
17.226999 9.742000 2.671000
17.007000 9.834000 3.324000
16.747000 9.916000 3.963000
17.025999 9.790000 2.988000
16.804001 9.881000 3.614000
16.523001 9.977000 4.275000
17.094000 9.811000 2.649000
16.829000 9.876000 3.290000
16.580000 9.964000 3.926000
16.833000 9.821000 2.955000
16.681000 9.953000 3.590000
16.386000 10.041000 4.246000
16.951000 9.871000 2.626000
16.712999 9.952000 3.269000
16.481001 10.049000 3.907000
16.687000 9.878000 2.928000
16.520000 10.001000 3.557000
16.231001 10.093000 4.210000
16.795000 9.921000 2.600000
16.580999 10.015000 3.244000
16.311001 10.090000 3.870000
16.527000 9.925000 2.900000
16.402000 10.074000 3.534000
16.004999 10.096000 4.155000
16.676001 9.991000 2.578000
16.406000 10.051000 3.209000
16.174000 10.149000 3.839000
16.330000 9.945000 2.864000
16.271000 10.134000 3.506000
15.848000 10.139000 4.119000
16.558001 10.061000 2.558000
16.311001 10.134000 3.190000
16.056999 10.217000 3.813000
16.205999 10.007000 2.839000
16.101999 10.170000 3.469000
15.690000 10.180000 4.080000
16.382000 10.091000 2.527000
16.163000 10.181000 3.160000
15.914000 10.268000 3.781000
16.101999 10.081000 2.819000
15.986000 10.236000 3.444000
15.549000 10.228000 4.045000
16.250000 10.147000 2.501000
16.023001 10.232000 3.129000
15.739000 10.295000 3.739000
15.973000 10.136000 2.793000
15.887000 10.311000 3.421000
15.436000 10.294000 4.018000
16.138000 10.213000 2.480000
15.870000 10.270000 3.097000
15.641000 10.368000 3.715000
15.848000 10.192000 2.766000
15.716000 10.338000 3.382000
14.995000 10.135000 3.903000
15.981000 10.249000 2.450000
15.768000 10.341000 3.074000
15.520000 10.426000 3.686000
15.800000 10.296000 2.753000
15.583000 10.385000 3.350000
14.859000 10.175000 3.867000
15.857000 10.303000 2.424000
15.616000 10.376000 3.039000
14.903000 10.144000 3.536000
15.718000 10.375000 2.733000
14.981000 10.115000 3.218000
14.989000 10.399000 3.901000
15.746000 10.363000 2.401000
15.093000 10.157000 2.933000
15.000000 10.341000 3.557000
15.604000 10.433000 2.706000
14.995000 10.255000 3.216000
15.085000 10.601000 3.923000
15.637000 10.423000 2.376000
14.912000 10.163000 2.893000
15.115000 10.554000 3.581000
14.978000 10.142000 2.592000
15.025000 10.405000 3.218000
14.943000 10.635000 3.883000
15.004000 10.127000 2.271000
15.071000 10.401000 2.916000
15.019000 10.619000 3.553000
15.074000 10.333000 2.601000
15.112000 10.596000 3.231000
14.801000 10.666000 3.844000
15.076000 10.302000 2.274000
15.173000 10.600000 2.929000
14.913000 10.674000 3.523000
15.145000 10.509000 2.603000
14.980000 10.632000 3.195000
14.713000 10.732000 3.815000
15.111000 10.451000 2.269000
15.061000 10.650000 2.900000
14.818000 10.735000 3.495000
15.110000 10.611000 2.588000
14.861000 10.674000 3.162000
14.598000 10.776000 3.780000
15.141000 10.597000 2.262000
14.917000 10.675000 2.862000
14.686000 10.767000 3.456000
14.996000 10.657000 2.559000
14.760000 10.728000 3.134000
14.481000 10.817000 3.745000
15.034000 10.646000 2.234000
14.804000 10.717000 2.831000
14.575000 10.810000 3.422000
14.897000 10.710000 2.530000
14.658000 10.778000 3.102000
14.386000 10.872000 3.712000
14.936000 10.700000 2.208000
14.665000 10.740000 2.795000
14.473000 10.858000 3.390000
14.796000 10.759000 2.501000
14.546000 10.816000 3.068000
14.283000 10.916000 3.677000
14.838000 10.751000 2.179000
14.533000 10.764000 2.757000
14.353000 10.889000 3.352000
14.687000 10.800000 2.471000
14.440000 10.858000 3.035000
14.175000 10.954000 3.641000
14.725000 10.787000 2.149000
14.385000 10.772000 2.717000
14.271000 10.946000 3.322000
14.586000 10.844000 2.440000
14.341000 10.903000 3.002000
14.067000 10.989000 3.602000
14.614000 10.824000 2.119000
14.268000 10.800000 2.683000
14.159000 10.978000 3.285000
14.487000 10.887000 2.409000
14.237000 10.939000 2.967000
13.971000 11.031000 3.567000
14.520000 10.870000 2.089000
14.189000 10.855000 2.653000
14.068000 11.022000 3.250000
14.380000 10.921000 2.377000
14.134000 10.974000 2.933000
13.890000 11.081000 3.534000
14.407000 10.898000 2.056000
14.138000 10.928000 2.628000
13.994000 11.078000 3.220000
14.284000 10.961000 2.344000
14.050000 11.021000 2.900000
13.777000 11.103000 3.491000
14.319000 10.943000 2.027000
14.098000 11.008000 2.606000
13.894000 11.108000 3.182000
14.170000 10.983000 2.308000
13.960000 11.060000 2.866000
13.687000 11.140000 3.455000
14.218000 10.976000 1.994000
14.036000 11.069000 2.577000
13.801000 11.143000 3.146000
14.091000 11.030000 2.279000
13.870000 11.096000 2.832000
13.645000 11.212000 3.429000
14.125000 11.010000 1.962000
13.943000 11.102000 2.542000
13.696000 11.163000 3.105000
13.996000 11.062000 2.243000
13.811000 11.154000 2.801000
13.551000 11.241000 3.389000
14.057000 11.063000 1.933000
13.846000 11.129000 2.507000
13.607000 11.193000 3.067000
13.933000 11.115000 2.214000
13.714000 11.177000 2.763000
13.454000 11.261000 3.347000
13.988000 11.112000 1.902000
13.747000 11.151000 2.468000
13.528000 11.230000 3.031000
13.854000 11.154000 2.182000
13.619000 11.199000 2.725000
13.368000 11.287000 3.307000
13.899000 11.141000 1.869000
13.671000 11.187000 2.434000
13.477000 11.285000 3.000000
13.765000 11.180000 2.145000
13.518000 11.213000 2.684000
13.284000 11.313000 3.267000
13.804000 11.163000 1.834000
13.615000 11.237000 2.403000
13.398000 11.312000 2.962000
13.681000 11.207000 2.110000
13.390000 11.200000 2.637000
13.217000 11.348000 3.230000
13.709000 11.182000 1.798000
13.535000 11.265000 2.366000
13.308000 11.328000 2.920000
13.588000 11.224000 2.074000
13.306000 11.220000 2.599000
13.157000 11.385000 3.194000
13.671000 11.243000 1.769000
13.448000 11.283000 2.328000
13.243000 11.361000 2.884000
13.550000 11.283000 2.043000
13.226000 11.240000 2.559000
13.081000 11.406000 3.152000
13.594000 11.270000 1.735000
13.403000 11.332000 2.296000
13.189000 11.399000 2.848000
13.466000 11.300000 2.005000
13.209000 11.310000 2.532000
13.031000 11.444000 3.117000
13.507000 11.284000 1.697000
13.315000 11.342000 2.256000
13.108000 11.412000 2.806000
13.388000 11.318000 1.969000
13.215000 11.397000 2.508000
12.954000 11.456000 3.074000
13.463000 11.331000 1.665000
13.242000 11.360000 2.217000
13.067000 11.454000 2.772000
13.351000 11.368000 1.936000
13.144000 11.414000 2.468000
12.904000 11.487000 3.036000
13.392000 11.352000 1.630000
13.218000 11.418000 2.187000
12.995000 11.465000 2.730000
13.272000 11.378000 1.897000
13.093000 11.444000 2.432000
12.867000 11.526000 3.000000
13.304000 11.355000 1.590000
13.143000 11.428000 2.146000
12.951000 11.498000 2.693000
13.232000 11.418000 1.863000
13.023000 11.453000 2.391000
12.800000 11.532000 2.957000
13.274000 11.403000 1.557000
13.093000 11.455000 2.110000
12.880000 11.502000 2.650000
13.169000 11.435000 1.825000
12.991000 11.494000 2.356000
12.764000 11.565000 2.919000
13.200000 11.410000 1.519000
13.040000 11.475000 2.072000
12.761000 11.458000 2.597000
13.109000 11.450000 1.787000
12.919000 11.493000 2.313000
12.718000 11.583000 2.879000
13.169000 11.451000 1.484000
12.989000 11.494000 2.033000
12.696000 11.459000 2.553000
13.074000 11.483000 1.751000
12.891000 11.527000 2.278000
12.669000 11.593000 2.837000
13.098000 11.453000 1.445000
12.937000 11.507000 1.994000
12.692000 11.510000 2.521000
13.016000 11.492000 1.712000
12.820000 11.520000 2.233000
12.653000 11.630000 2.801000
13.070000 11.488000 1.411000
12.914000 11.542000 1.959000
12.698000 11.567000 2.491000
12.974000 11.512000 1.675000
12.808000 11.561000 2.199000
12.588000 11.617000 2.754000
12.924000 11.416000 1.362000
12.849000 11.536000 1.916000
12.693000 11.609000 2.456000
12.948000 11.541000 1.638000
12.777000 11.581000 2.161000
12.565000 11.638000 2.716000
12.663000 11.237000 1.302000
12.836000 11.572000 1.881000
12.678000 11.638000 2.420000
12.881000 11.529000 1.596000
12.729000 11.580000 2.119000
12.567000 11.678000 2.680000
12.480000 11.121000 1.251000
12.811000 11.593000 1.844000
12.625000 11.628000 2.375000
12.880000 11.572000 1.562000
12.723000 11.614000 2.084000
12.486000 11.637000 2.629000
12.445000 11.133000 1.214000
12.753000 11.580000 1.800000
12.608000 11.646000 2.336000
12.855000 11.591000 1.524000
12.704000 11.631000 2.045000
12.433000 11.616000 2.582000
12.478000 11.202000 1.183000
12.743000 11.605000 1.763000
12.601000 11.669000 2.299000
12.807000 11.584000 1.483000
12.667000 11.629000 2.003000
12.360000 11.573000 2.529000
12.695000 11.432000 1.169000
12.740000 11.633000 1.727000
12.588000 11.682000 2.260000
12.784000 11.595000 1.445000
12.646000 11.636000 1.964000
12.391000 11.621000 2.499000
12.808000 11.566000 1.143000
12.709000 11.633000 1.686000
12.559000 11.675000 2.217000
12.774000 11.612000 1.407000
12.635000 11.647000 1.925000
12.456000 11.697000 2.474000
12.810000 11.596000 1.107000
12.680000 11.628000 1.646000
12.531000 11.666000 2.175000
12.712000 11.580000 1.363000
12.626000 11.656000 1.886000
12.452000 11.704000 2.434000
12.806000 11.616000 1.070000
12.666000 11.632000 1.607000
12.518000 11.665000 2.134000
12.386000 11.302000 1.292000
12.626000 11.669000 1.848000
12.432000 11.691000 2.392000
12.792000 11.623000 1.031000
12.667000 11.646000 1.568000
12.519000 11.672000 2.094000
12.279000 11.217000 1.245000
12.624000 11.675000 1.809000
12.453000 11.713000 2.356000
12.789000 11.635000 0.993000
12.663000 11.651000 1.530000
12.519000 11.674000 2.056000
12.263000 11.213000 1.206000
12.618000 11.673000 1.768000
12.449000 11.705000 2.314000
12.770000 11.629000 0.954000
12.657000 11.651000 1.491000
12.514000 11.668000 2.016000
12.332000 11.281000 1.176000
12.612000 11.668000 1.729000
12.457000 11.705000 2.276000
12.762000 11.628000 0.915000
12.671000 11.663000 1.452000
12.518000 11.664000 1.975000
12.614000 11.540000 1.165000
12.631000 11.680000 1.693000
12.470000 11.704000 2.237000
12.752000 11.621000 0.876000
12.675000 11.662000 1.415000
12.532000 11.666000 1.938000
12.713000 11.627000 1.135000
12.647000 11.684000 1.654000
12.490000 11.706000 2.199000
12.760000 11.626000 0.838000
12.659000 11.638000 1.374000
12.554000 11.670000 1.901000
12.720000 11.627000 1.097000
12.644000 11.668000 1.614000
12.499000 11.694000 2.160000
12.765000 11.624000 0.799000
12.526000 11.503000 1.319000
12.583000 11.677000 1.864000
12.732000 11.625000 1.059000
12.656000 11.661000 1.576000
12.498000 11.666000 2.118000
12.783000 11.629000 0.762000
12.270000 11.251000 1.255000
12.617000 11.684000 1.829000
12.758000 11.634000 1.021000
12.669000 11.649000 1.536000
12.513000 11.650000 2.078000
12.798000 11.627000 0.724000
12.251000 11.212000 1.215000
12.632000 11.669000 1.790000
12.791000 11.643000 0.985000
12.675000 11.628000 1.498000
12.607000 11.703000 2.052000
12.825000 11.631000 0.686000
12.292000 11.224000 1.179000
12.653000 11.654000 1.751000
12.802000 11.628000 0.947000
12.713000 11.632000 1.462000
12.624000 11.680000 2.013000
12.844000 11.626000 0.649000
12.613000 11.486000 1.172000
12.664000 11.627000 1.713000
12.815000 11.610000 0.908000
12.758000 11.637000 1.426000
12.621000 11.634000 1.970000
12.848000 11.601000 0.609000
12.775000 11.600000 1.148000
12.721000 11.639000 1.679000
12.836000 11.596000 0.871000
12.780000 11.618000 1.389000
12.648000 11.612000 1.933000
12.863000 11.582000 0.572000
12.808000 11.591000 1.110000
12.760000 11.628000 1.642000
12.862000 11.582000 0.833000
12.734000 11.532000 1.345000
12.733000 11.639000 1.904000
12.911000 11.589000 0.537000
12.842000 11.579000 1.075000
12.779000 11.596000 1.605000
12.910000 11.585000 0.798000
12.463000 11.241000 1.276000
12.757000 11.606000 1.865000
12.951000 11.584000 0.499000
12.898000 11.582000 1.040000
12.831000 11.590000 1.571000
12.946000 11.571000 0.762000
12.416000 11.149000 1.234000
12.826000 11.610000 1.835000
12.966000 11.553000 0.462000
12.921000 11.553000 1.002000
12.875000 11.572000 1.535000
12.972000 11.545000 0.725000
12.466000 11.140000 1.201000
12.856000 11.576000 1.798000
13.004000 11.539000 0.427000
12.983000 11.554000 0.970000
12.915000 11.548000 1.500000
13.037000 11.551000 0.691000
12.635000 11.233000 1.178000
12.878000 11.529000 1.759000
13.063000 11.538000 0.391000
13.017000 11.527000 0.934000
12.968000 11.531000 1.468000
13.065000 11.519000 0.656000
12.934000 11.438000 1.169000
12.963000 11.537000 1.730000
13.079000 11.497000 0.355000
13.046000 11.490000 0.897000
13.014000 11.504000 1.432000
13.111000 11.499000 0.620000
13.080000 11.502000 1.144000
12.996000 11.494000 1.696000
13.160000 11.510000 0.322000
13.131000 11.500000 0.867000
13.076000 11.488000 1.400000
13.175000 11.492000 0.586000
13.124000 11.470000 1.109000
13.082000 11.494000 1.666000
13.201000 11.482000 0.286000
13.167000 11.464000 0.832000
12.952000 11.306000 1.350000
13.207000 11.452000 0.552000
13.201000 11.465000 1.078000
13.148000 11.473000 1.635000
13.249000 11.458000 0.252000
13.250000 11.464000 0.800000
12.760000 11.063000 1.292000
13.281000 11.447000 0.519000
13.237000 11.422000 1.044000
13.194000 11.432000 1.603000
13.306000 11.437000 0.219000
13.291000 11.423000 0.767000
12.786000 11.009000 1.258000
13.343000 11.426000 0.486000
13.328000 11.421000 1.014000
13.285000 11.426000 1.574000
13.373000 11.422000 0.185000
13.356000 11.402000 0.735000
12.861000 10.993000 1.231000
13.396000 11.395000 0.454000
13.366000 11.372000 0.981000
13.320000 11.369000 1.540000
13.412000 11.379000 0.152000
13.426000 11.380000 0.703000
13.117000 11.127000 1.218000
13.466000 11.374000 0.421000
13.438000 11.348000 0.951000
13.404000 11.350000 1.514000
13.421000 11.308000 0.120000
13.478000 11.341000 0.671000
13.377000 11.260000 1.207000
13.511000 11.330000 0.389000
13.537000 11.344000 0.922000
13.495000 11.334000 1.486000
13.434000 11.237000 0.086000
13.571000 11.332000 0.643000
13.540000 11.306000 1.187000
13.603000 11.322000 0.360000
13.576000 11.288000 0.891000
13.534000 11.273000 1.454000
13.567000 11.265000 0.055000
13.642000 11.301000 0.612000
13.638000 11.293000 1.159000
13.690000 11.305000 0.329000
13.666000 11.270000 0.864000
13.567000 11.203000 1.423000
13.706000 11.292000 0.026000
13.688000 11.249000 0.581000
13.699000 11.247000 1.130000
13.728000 11.247000 0.298000
13.753000 11.246000 0.835000
13.407000 10.973000 1.371000
13.764000 11.249000 -0.005000
13.791000 11.239000 0.554000
13.764000 11.203000 1.103000
13.834000 11.240000 0.270000
13.811000 11.196000 0.806000
13.313000 10.798000 1.328000
13.845000 11.223000 -0.035000
13.888000 11.220000 0.526000
13.856000 11.175000 1.076000
13.910000 11.205000 0.240000
13.896000 11.167000 0.780000
13.395000 10.764000 1.305000
13.941000 11.206000 -0.064000
13.936000 11.160000 0.497000
13.961000 11.157000 1.052000
13.962000 11.149000 0.211000
14.000000 11.147000 0.753000
13.493000 10.741000 1.281000
14.009000 11.162000 -0.094000
14.032000 11.135000 0.471000
14.057000 11.129000 1.028000
14.009000 11.087000 0.183000
14.092000 11.117000 0.728000
13.801000 10.881000 1.279000
14.080000 11.119000 -0.122000
14.128000 11.108000 0.444000
14.128000 11.078000 1.001000
14.031000 11.002000 0.155000
14.191000 11.089000 0.704000
14.093000 11.002000 1.275000
14.183000 11.098000 -0.150000
14.227000 11.081000 0.418000
14.205000 11.030000 0.976000
14.162000 11.001000 0.129000
14.258000 11.033000 0.677000
14.258000 11.018000 1.258000
14.273000 11.063000 -0.178000
14.312000 11.039000 0.394000
14.301000 10.994000 0.954000
14.310000 11.010000 0.104000
14.346000 10.993000 0.653000
14.371000 10.993000 1.237000
14.364000 11.027000 -0.205000
14.406000 11.002000 0.368000
14.409000 10.963000 0.931000
14.439000 10.999000 0.078000
14.443000 10.955000 0.630000
14.471000 10.954000 1.217000
14.465000 10.997000 -0.231000
14.492000 10.957000 0.343000
14.505000 10.924000 0.909000
14.516000 10.948000 0.053000
14.539000 10.914000 0.606000
14.576000 10.916000 1.196000
14.552000 10.952000 -0.257000
14.571000 10.903000 0.320000
14.612000 10.889000 0.888000
14.599000 10.900000 0.028000
14.648000 10.882000 0.584000
14.643000 10.849000 1.173000
14.631000 10.899000 -0.282000
14.672000 10.864000 0.296000
14.720000 10.851000 0.867000
14.711000 10.868000 0.004000
14.752000 10.842000 0.564000
14.764000 10.820000 1.155000
14.731000 10.861000 -0.307000
14.772000 10.823000 0.274000
14.819000 10.806000 0.847000
14.815000 10.829000 -0.018000
14.853000 10.798000 0.541000
14.878000 10.782000 1.137000
14.837000 10.822000 -0.331000
14.837000 10.753000 0.252000
14.934000 10.770000 0.828000
14.911000 10.783000 -0.041000
14.970000 10.764000 0.521000
15.001000 10.750000 1.120000
14.946000 10.785000 -0.355000
14.892000 10.674000 0.229000
15.045000 10.727000 0.809000
15.034000 10.751000 -0.063000
15.065000 10.711000 0.502000
15.103000 10.700000 1.102000
15.055000 10.745000 -0.379000
14.998000 10.630000 0.208000
15.136000 10.670000 0.790000
15.134000 10.704000 -0.085000
15.167000 10.662000 0.481000
15.217000 10.655000 1.085000
15.156000 10.696000 -0.401000
15.145000 10.613000 0.189000
15.259000 10.634000 0.773000
15.243000 10.660000 -0.106000
15.284000 10.622000 0.463000
15.327000 10.607000 1.069000
15.258000 10.647000 -0.423000
15.293000 10.593000 0.169000
15.358000 10.576000 0.755000
15.344000 10.606000 -0.127000
15.360000 10.550000 0.443000
15.232000 10.417000 1.039000
15.375000 10.606000 -0.445000
15.257000 10.446000 0.149000
15.257000 10.383000 0.728000
15.292000 10.447000 -0.146000
15.284000 10.373000 0.420000
15.130000 10.221000 1.010000
15.322000 10.445000 -0.462000
15.256000 10.322000 0.130000
15.114000 10.163000 0.700000
15.314000 10.340000 -0.164000
15.148000 10.158000 0.397000
15.174000 10.127000 0.991000
15.328000 10.327000 -0.479000
15.192000 10.155000 0.110000
15.491000 10.288000 0.697000
15.218000 10.151000 -0.181000
15.717000 10.413000 0.392000
15.778000 10.401000 1.009000
15.247000 10.150000 -0.492000
15.822000 10.448000 0.097000
15.875000 10.414000 0.694000
15.847000 10.443000 -0.205000
15.907000 10.408000 0.378000
15.897000 10.348000 0.996000
15.873000 10.437000 -0.529000
15.945000 10.400000 0.080000
15.981000 10.354000 0.679000
15.969000 10.395000 -0.223000
15.994000 10.335000 0.362000
16.072001 10.330000 0.987000
15.993000 10.387000 -0.548000
16.049999 10.338000 0.063000
16.108000 10.304000 0.666000
16.084000 10.338000 -0.241000
16.059000 10.247000 0.346000
16.197001 10.278000 0.975000
16.105000 10.330000 -0.566000
16.166000 10.281000 0.047000
16.229000 10.249000 0.653000
16.218000 10.294000 -0.258000
16.152000 10.174000 0.331000
16.289000 10.202000 0.961000
16.232000 10.279000 -0.585000
16.297001 10.233000 0.032000
16.361000 10.199000 0.640000
16.316000 10.225000 -0.274000
16.237000 10.096000 0.316000
16.412001 10.146000 0.950000
16.353001 10.223000 -0.602000
16.445999 10.192000 0.017000
16.485001 10.141000 0.628000
16.466000 10.184000 -0.292000
16.381001 10.054000 0.304000
16.537001 10.089000 0.940000
16.523001 10.196000 -0.621000
16.559999 10.129000 0.002000
16.658001 10.113000 0.618000
16.636000 10.154000 -0.307000
16.583000 10.042000 0.292000
16.729000 10.068000 0.934000
16.636000 10.131000 -0.638000
16.707001 10.085000 -0.010000
16.789000 10.057000 0.608000
16.757000 10.094000 -0.322000
16.753000 10.010000 0.281000
16.811001 9.981000 0.922000
16.754999 10.067000 -0.654000
16.823000 10.017000 -0.024000
16.871000 9.969000 0.595000
16.879000 10.031000 -0.338000
16.896000 9.960000 0.269000
16.951000 9.929000 0.914000
16.905001 10.021000 -0.670000
16.997999 9.985000 -0.037000
17.041000 9.932000 0.587000
17.035999 9.986000 -0.352000
17.089001 9.935000 0.259000
17.129000 9.893000 0.908000
17.058001 9.975000 -0.688000
17.118000 9.919000 -0.049000
17.167000 9.868000 0.577000
17.153000 9.918000 -0.365000
17.205999 9.865000 0.248000
17.245001 9.822000 0.899000
17.181000 9.908000 -0.701000
17.250999 9.856000 -0.061000
17.282000 9.795000 0.567000
17.268999 9.846000 -0.379000
17.325001 9.795000 0.237000
17.367001 9.753000 0.892000
17.308001 9.842000 -0.716000
17.410999 9.808000 -0.073000
17.482000 9.768000 0.561000
17.448000 9.808000 -0.392000
17.511000 9.760000 0.228000
17.559999 9.720000 0.887000
17.486000 9.803000 -0.732000
17.545000 9.744000 -0.084000
17.593000 9.691000 0.553000
17.590000 9.748000 -0.404000
17.639000 9.691000 0.219000
17.671000 9.640000 0.881000
17.608999 9.731000 -0.745000
17.673000 9.673000 -0.094000
17.747000 9.633000 0.545000
17.702999 9.669000 -0.416000
17.811001 9.645000 0.211000
17.825001 9.583000 0.876000
17.731001 9.658000 -0.757000
17.849001 9.629000 -0.105000
17.912001 9.581000 0.540000
17.902000 9.636000 -0.429000
17.954000 9.578000 0.202000
17.976000 9.521000 0.870000
17.834000 9.572000 -0.770000
17.972000 9.553000 -0.114000
17.990000 9.481000 0.531000
18.004000 9.549000 -0.439000
18.056999 9.491000 0.194000
18.114000 9.452000 0.867000
17.934000 9.482000 -0.779000
18.159000 9.508000 -0.124000
18.143999 9.419000 0.525000
18.200001 9.509000 -0.452000
18.270000 9.461000 0.187000
18.292000 9.402000 0.864000
18.089001 9.422000 -0.792000
18.295000 9.436000 -0.132000
18.257999 9.335000 0.519000
18.315001 9.424000 -0.460000
18.388000 9.378000 0.179000
18.410999 9.318000 0.859000
18.267000 9.371000 -0.806000
18.488001 9.392000 -0.141000
18.389000 9.259000 0.514000
18.528999 9.389000 -0.472000
18.575001 9.328000 0.173000
18.610001 9.274000 0.859000
18.516001 9.353000 -0.821000
18.596001 9.301000 -0.150000
18.566000 9.203000 0.510000
18.636999 9.298000 -0.481000
18.702000 9.246000 0.167000
18.750999 9.199000 0.856000
18.674000 9.287000 -0.833000
18.795000 9.254000 -0.157000
18.754999 9.152000 0.507000
18.844000 9.255000 -0.491000
18.909000 9.202000 0.161000
18.924000 9.137000 0.854000
18.879999 9.241000 -0.847000
18.933001 9.176000 -0.164000
18.910999 9.082000 0.504000
18.957001 9.164000 -0.499000
19.052000 9.125000 0.156000
19.093000 9.072000 0.854000
19.011000 9.158000 -0.856000
19.132999 9.124000 -0.172000
19.135000 9.042000 0.502000
19.054001 9.063000 -0.507000
19.218000 9.057000 0.152000
19.253000 9.001000 0.853000
18.987000 9.000000 -0.858000
19.254000 9.034000 -0.177000
19.326000 8.985000 0.501000
18.916000 8.851000 -0.506000
19.388000 8.988000 0.146000
19.459999 8.948000 0.854000
18.922001 8.822000 -0.858000
19.441000 8.974000 -0.184000
19.493999 8.915000 0.498000
19.058001 8.773000 -0.513000
19.497999 8.890000 0.143000
19.337999 8.745000 0.842000
19.333000 8.865000 -0.878000
19.349001 8.783000 -0.188000
19.417999 8.732000 0.490000
19.396999 8.780000 -0.527000
19.452999 8.723000 0.137000
19.406000 8.630000 0.838000
19.437000 8.765000 -0.885000
19.513000 8.709000 -0.193000
19.417000 8.584000 0.485000
19.552000 8.702000 -0.534000
19.441000 8.570000 0.132000
19.337999 8.454000 0.828000
19.562000 8.672000 -0.893000
19.443001 8.530000 -0.196000
19.344999 8.408000 0.478000
19.469999 8.518000 -0.533000
19.355000 8.386000 0.128000
19.264999 8.277000 0.820000
19.485001 8.490000 -0.891000
19.360001 8.348000 -0.198000
19.273001 8.231000 0.471000
19.405001 8.343000 -0.534000
19.288000 8.211000 0.123000
19.188999 8.102000 0.812000
19.410000 8.310000 -0.888000
19.299999 8.177000 -0.199000
19.195999 8.055000 0.465000
19.320999 8.162000 -0.533000
19.211000 8.036000 0.120000
18.940001 7.855000 0.796000
19.330000 8.130000 -0.885000
18.995001 7.905000 -0.199000
19.018000 7.840000 0.457000
19.017000 7.890000 -0.525000
19.047001 7.826000 0.116000
19.113001 7.785000 0.799000
19.054001 7.872000 -0.873000
19.122000 7.816000 -0.202000
19.202999 7.773000 0.458000
19.172001 7.811000 -0.531000
19.223000 7.755000 0.114000
19.284000 7.713000 0.802000
19.231001 7.801000 -0.880000
19.304001 7.748000 -0.205000
20.973000 8.335000 0.497000
19.337000 7.735000 -0.536000
21.013000 8.323000 0.122000
21.040001 8.261000 0.870000
20.368999 8.110000 -0.932000
21.120001 8.320000 -0.227000
21.202000 8.271000 0.499000
20.518999 8.057000 -0.569000
21.224001 8.250000 0.122000
21.268000 8.195000 0.876000
21.209999 8.288000 -0.970000
20.892000 8.077000 -0.225000
21.402000 8.192000 0.500000
20.730000 7.986000 -0.576000
21.416000 8.168000 0.121000
21.483000 8.122000 0.882000
21.417999 8.211000 -0.978000
20.875999 7.918000 -0.225000
21.594000 8.109000 0.502000
21.535999 8.139000 -0.598000
21.462000 8.030000 0.120000
21.679001 8.038000 0.886000
21.629999 8.133000 -0.987000
21.051001 7.830000 -0.228000
21.782000 8.021000 0.505000
21.788000 8.075000 -0.604000
21.159000 7.762000 0.117000
21.865000 7.950000 0.890000
21.861000 8.060000 -0.996000
21.903000 7.989000 -0.238000
21.972000 7.932000 0.507000
21.976000 7.984000 -0.609000
21.403999 7.697000 0.117000
22.063999 7.869000 0.896000
22.042000 7.971000 -1.002000
22.103001 7.907000 -0.240000
21.518000 7.627000 0.495000
22.145000 7.904000 -0.612000
22.219000 7.856000 0.121000
22.170000 7.773000 0.899000
22.212000 7.902000 -1.009000
22.304001 7.856000 -0.242000
21.739000 7.585000 0.500000
22.341999 7.849000 -0.617000
22.374001 7.787000 0.121000
22.152000 7.644000 0.896000
22.379999 7.837000 -1.015000
22.421000 7.773000 -0.242000
22.017000 7.560000 0.504000
22.455000 7.765000 -0.619000
22.566000 7.729000 0.123000
21.893999 7.436000 0.884000
22.544001 7.769000 -1.019000
22.615000 7.715000 -0.245000
22.664000 7.658000 0.518000
22.657000 7.709000 -0.623000
22.698000 7.649000 0.123000
22.125000 7.394000 0.892000
22.690001 7.692000 -1.025000
22.761999 7.640000 -0.246000
22.849001 7.596000 0.523000
22.834000 7.643000 -0.627000
22.892000 7.590000 0.124000
22.489000 7.391000 0.905000
22.893999 7.636000 -1.032000
22.916000 7.566000 -0.246000
22.988001 7.516000 0.525000
22.976000 7.565000 -0.630000
23.042999 7.514000 0.126000
22.958000 7.421000 0.923000
19.150999 6.282000 -0.861000
19.207001 6.236000 -0.206000
23.172001 7.451000 0.528000
19.169001 6.206000 -0.524000
19.219000 6.162000 0.104000
19.292000 6.132000 0.775000
19.106001 6.161000 -0.857000
19.170000 6.120000 -0.205000
19.222000 6.076000 0.439000
19.122000 6.085000 -0.521000
19.193001 6.050000 0.105000
19.249001 6.014000 0.773000
19.055000 6.040000 -0.853000
19.118999 5.999000 -0.203000
19.179001 5.958000 0.437000
19.073000 5.967000 -0.519000
19.129999 5.926000 0.105000
19.188000 5.891000 0.769000
19.004999 5.921000 -0.849000
19.073999 5.881000 -0.202000
19.138000 5.843000 0.436000
19.028999 5.849000 -0.516000
19.093000 5.811000 0.105000
19.150999 5.778000 0.767000
18.934000 5.794000 -0.844000
19.044001 5.769000 -0.200000
19.091000 5.726000 0.435000
18.974001 5.729000 -0.513000
19.046000 5.695000 0.105000
19.113001 5.664000 0.766000
18.830999 5.661000 -0.837000
18.966999 5.644000 -0.199000
19.048000 5.610000 0.434000
18.940001 5.616000 -0.510000
19.002001 5.579000 0.106000
19.059999 5.546000 0.763000
18.774000 5.542000 -0.832000
18.924000 5.528000 -0.197000
19.003000 5.496000 0.433000
18.892000 5.500000 -0.507000
18.957001 5.464000 0.106000
19.023001 5.434000 0.761000
18.820999 5.455000 -0.832000
18.891001 5.418000 -0.195000
18.952000 5.381000 0.432000
18.851000 5.387000 -0.505000
18.924999 5.354000 0.107000
18.981001 5.321000 0.760000
18.808001 5.349000 -0.829000
18.900000 5.320000 -0.194000
18.930000 5.273000 0.432000
18.927999 5.308000 -0.505000
18.975000 5.267000 0.108000
18.999001 5.225000 0.760000
18.978001 5.295000 -0.835000
19.025999 5.252000 -0.194000
19.079000 5.214000 0.436000
19.072001 5.247000 -0.507000
19.115000 5.204000 0.110000
19.153000 5.167000 0.766000
19.056999 5.215000 -0.835000
19.183001 5.194000 -0.194000
19.221001 5.152000 0.440000
19.226999 5.185000 -0.509000
19.267000 5.144000 0.111000
19.308001 5.107000 0.773000
19.062000 5.114000 -0.834000
19.334000 5.133000 -0.194000
19.372000 5.089000 0.444000
19.386999 5.126000 -0.512000
19.424999 5.084000 0.113000
19.450001 5.042000 0.778000
19.027000 5.003000 -0.830000
19.490000 5.071000 -0.194000
19.541000 5.031000 0.448000
19.514000 5.056000 -0.513000
19.580000 5.020000 0.115000
19.625999 4.985000 0.785000
18.990000 4.892000 -0.825000
19.646999 5.007000 -0.195000
19.687000 4.966000 0.452000
19.533001 4.956000 -0.512000
19.737000 4.957000 0.117000
19.766001 4.918000 0.791000
18.861000 4.758000 -0.818000
19.812000 4.946000 -0.195000
19.833000 4.897000 0.456000
19.513000 4.849000 -0.509000
19.893000 4.893000 0.120000
19.924999 4.853000 0.798000
18.714001 4.622000 -0.809000
19.976999 4.881000 -0.194000
20.003000 4.835000 0.461000
19.492001 4.741000 -0.506000
20.066000 4.829000 0.122000
20.082001 4.787000 0.805000
18.677999 4.515000 -0.805000
20.080000 4.801000 -0.194000
20.184000 4.775000 0.466000
19.399000 4.615000 -0.502000
20.205000 4.757000 0.124000
20.253000 4.723000 0.812000
18.681999 4.416000 -0.803000
20.035999 4.686000 -0.192000
20.330999 4.703000 0.471000
19.207001 4.469000 -0.495000
20.399000 4.697000 0.126000
20.431000 4.657000 0.819000
18.653000 4.312000 -0.799000
19.993000 4.572000 -0.190000
20.509001 4.638000 0.475000
19.176001 4.363000 -0.492000
20.559999 4.626000 0.129000
20.593000 4.589000 0.826000
18.573000 4.196000 -0.793000
19.979000 4.464000 -0.188000
20.679001 4.570000 0.480000
19.153000 4.256000 -0.490000
20.573000 4.523000 0.130000
20.767000 4.521000 0.834000
18.499001 4.081000 -0.788000
19.941999 4.353000 -0.186000
20.851999 4.501000 0.485000
19.101000 4.145000 -0.486000
20.544001 4.411000 0.131000
20.948999 4.451000 0.842000
18.436001 3.972000 -0.783000
19.857000 4.232000 -0.183000
20.988001 4.421000 0.490000
19.087999 4.044000 -0.484000
20.487000 4.292000 0.132000
21.118999 4.380000 0.849000
18.353001 3.859000 -0.777000
19.815001 4.119000 -0.181000
20.959000 4.308000 0.490000
19.010000 3.929000 -0.480000
20.448999 4.179000 0.134000
21.277000 4.304000 0.856000
18.320000 3.755000 -0.773000
19.715000 3.997000 -0.179000
20.938000 4.197000 0.490000
18.853001 3.798000 -0.474000
20.368999 4.059000 0.134000
21.438000 4.226000 0.864000
18.362000 3.669000 -0.773000
19.690001 3.891000 -0.177000
20.934000 4.087000 0.491000
18.774000 3.685000 -0.470000
20.329000 3.946000 0.135000
21.427000 4.115000 0.864000
18.400999 3.582000 -0.772000
19.620001 3.775000 -0.174000
20.855000 3.966000 0.490000
18.819000 3.598000 -0.469000
20.257000 3.828000 0.136000
21.370001 3.996000 0.862000
18.483000 3.500000 -0.774000
19.430000 3.639000 -0.171000
20.823999 3.854000 0.491000
18.900999 3.515000 -0.470000
20.219000 3.718000 0.137000
21.357000 3.884000 0.862000
18.483000 3.406000 -0.771000
