# This PCD file was generated using the MATLAB® pcwrite function
# from Computer Vision Toolbox®.
# .PCD v.7 - Point Cloud Data file format
VERSION .7
FIELDS x y z
SIZE 4 4 4
TYPE F F F
COUNT 1 1 1
WIDTH 1628
HEIGHT 1
VIEWPOINT 0 0 0 1 0 0 0
POINTS 1628
DATA ascii
11.905000 11.910000 1.892000
12.123000 11.882000 0.558000
12.055000 11.875000 1.085000
12.015000 11.922000 1.607000
12.111000 11.867000 0.812000
12.057000 11.881000 1.319000
11.969000 11.911000 1.857000
12.162000 11.874000 0.520000
12.104000 11.870000 1.047000
12.039000 11.884000 1.566000
12.178000 11.881000 0.776000
11.838000 11.608000 1.255000
12.014000 11.889000 1.820000
12.209000 11.870000 0.482000
12.167000 11.874000 1.011000
12.103000 11.882000 1.532000
12.212000 11.858000 0.738000
11.764000 11.474000 1.205000
12.099000 11.901000 1.789000
12.234000 11.840000 0.443000
12.188000 11.832000 0.973000
12.150000 11.858000 1.495000
12.240000 11.826000 0.700000
11.771000 11.417000 1.166000
12.126000 11.852000 1.749000
12.294000 11.839000 0.407000
12.269000 11.845000 0.938000
12.207000 11.840000 1.459000
12.307000 11.825000 0.664000
11.838000 11.414000 1.134000
12.203000 11.849000 1.717000
12.334000 11.815000 0.369000
12.301000 11.807000 0.901000
12.261000 11.817000 1.424000
12.348000 11.798000 0.627000
12.101000 11.593000 1.118000
12.238000 11.800000 1.679000
12.389000 11.800000 0.332000
12.374000 11.803000 0.867000
12.322000 11.795000 1.390000
12.420000 11.796000 0.592000
12.371000 11.775000 1.103000
12.325000 11.799000 1.648000
12.455000 11.792000 0.297000
12.415000 11.765000 0.830000
12.378000 11.764000 1.355000
12.452000 11.750000 0.555000
12.444000 11.762000 1.071000
12.371000 11.755000 1.613000
12.493000 11.755000 0.261000
12.490000 11.756000 0.796000
12.367000 11.667000 1.313000
12.534000 11.749000 0.521000
12.497000 11.727000 1.035000
12.449000 11.735000 1.581000
12.560000 11.740000 0.225000
12.536000 11.716000 0.762000
12.126000 11.353000 1.250000
12.570000 11.701000 0.486000
12.575000 11.712000 1.003000
12.514000 11.702000 1.549000
12.610000 11.705000 0.190000
12.614000 11.700000 0.728000
12.132000 11.268000 1.211000
12.650000 11.689000 0.452000
12.624000 11.667000 0.970000
12.574000 11.660000 1.517000
12.672000 11.679000 0.156000
12.690000 11.681000 0.696000
12.205000 11.243000 1.181000
12.729000 11.674000 0.419000
12.715000 11.657000 0.938000
12.679000 11.657000 1.488000
12.744000 11.657000 0.122000
12.743000 11.636000 0.663000
12.397000 11.324000 1.164000
12.773000 11.623000 0.386000
12.786000 11.625000 0.906000
12.767000 11.635000 1.460000
12.779000 11.599000 0.088000
12.837000 11.626000 0.631000
12.749000 11.545000 1.158000
12.880000 11.624000 0.354000
12.831000 11.567000 0.874000
12.807000 11.567000 1.427000
12.724000 11.457000 0.055000
12.917000 11.600000 0.600000
12.900000 11.577000 1.135000
12.952000 11.594000 0.322000
12.928000 11.551000 0.844000
12.892000 11.535000 1.398000
12.867000 11.489000 0.023000
12.960000 11.538000 0.569000
12.989000 11.551000 1.108000
12.994000 11.532000 0.290000
13.024000 11.534000 0.816000
12.894000 11.428000 1.361000
12.998000 11.508000 -0.008000
13.055000 11.518000 0.539000
13.052000 11.498000 1.077000
13.094000 11.517000 0.260000
13.121000 11.512000 0.789000
12.723000 11.168000 1.309000
13.112000 11.507000 -0.039000
13.159000 11.504000 0.510000
13.138000 11.464000 1.049000
13.204000 11.509000 0.230000
13.171000 11.447000 0.757000
12.691000 11.030000 1.270000
13.210000 11.488000 -0.070000
13.237000 11.464000 0.482000
13.239000 11.440000 1.024000
13.276000 11.465000 0.201000
13.273000 11.424000 0.730000
12.785000 11.000000 1.246000
13.297000 11.457000 -0.100000
13.308000 11.414000 0.452000
13.339000 11.411000 0.997000
13.341000 11.411000 0.171000
13.365000 11.391000 0.704000
12.921000 11.003000 1.227000
13.378000 11.418000 -0.128000
13.394000 11.376000 0.424000
13.423000 11.367000 0.971000
13.385000 11.338000 0.142000
13.462000 11.358000 0.677000
13.251000 11.166000 1.225000
13.462000 11.378000 -0.158000
13.488000 11.342000 0.398000
13.542000 11.349000 0.949000
13.429000 11.262000 0.115000
13.567000 11.330000 0.652000
13.516000 11.269000 1.217000
13.539000 11.331000 -0.187000
13.593000 11.313000 0.371000
13.630000 11.302000 0.923000
13.529000 11.231000 0.087000
13.667000 11.295000 0.628000
13.645000 11.255000 1.197000
13.659000 11.316000 -0.214000
13.700000 11.284000 0.346000
13.708000 11.246000 0.898000
13.694000 11.252000 0.061000
13.762000 11.252000 0.602000
13.747000 11.214000 1.174000
13.763000 11.284000 -0.243000
13.805000 11.250000 0.322000
13.797000 11.196000 0.875000
13.822000 11.238000 0.036000
13.851000 11.204000 0.578000
13.858000 11.181000 1.153000
13.853000 11.240000 -0.269000
13.904000 11.209000 0.296000
13.897000 11.152000 0.851000
13.931000 11.205000 0.010000
13.935000 11.148000 0.555000
13.968000 11.142000 1.134000
13.957000 11.204000 -0.295000
14.011000 11.174000 0.272000
14.005000 11.114000 0.830000
14.030000 11.163000 -0.014000
14.049000 11.114000 0.532000
14.076000 11.100000 1.112000
14.059000 11.163000 -0.321000
14.111000 11.129000 0.250000
14.121000 11.079000 0.810000
14.124000 11.114000 -0.037000
14.141000 11.061000 0.509000
14.182000 11.055000 1.093000
14.153000 11.114000 -0.346000
14.222000 11.089000 0.226000
14.219000 11.027000 0.788000
14.248000 11.085000 -0.062000
14.251000 11.021000 0.489000
14.276000 10.999000 1.074000
14.259000 11.072000 -0.370000
14.261000 10.993000 0.203000
14.336000 10.989000 0.769000
14.341000 11.032000 -0.085000
14.369000 10.983000 0.468000
14.393000 10.957000 1.055000
14.364000 11.027000 -0.395000
14.304000 10.899000 0.182000
14.447000 10.943000 0.751000
14.464000 10.998000 -0.106000
14.502000 10.955000 0.449000
14.506000 10.912000 1.037000
14.490000 10.997000 -0.418000
14.423000 10.861000 0.160000
14.564000 10.901000 0.732000
14.575000 10.952000 -0.129000
14.616000 10.910000 0.430000
14.612000 10.858000 1.021000
14.606000 10.955000 -0.441000
14.595000 10.860000 0.141000
14.687000 10.861000 0.714000
14.683000 10.905000 -0.151000
14.729000 10.863000 0.410000
14.727000 10.809000 1.003000
14.714000 10.905000 -0.464000
14.752000 10.846000 0.122000
14.824000 10.828000 0.699000
14.799000 10.859000 -0.171000
14.855000 10.822000 0.393000
14.859000 10.773000 0.989000
14.818000 10.851000 -0.485000
14.893000 10.816000 0.102000
14.941000 10.778000 0.681000
14.926000 10.818000 -0.192000
14.961000 10.766000 0.375000
14.997000 10.736000 0.976000
14.949000 10.814000 -0.506000
15.003000 10.762000 0.084000
15.052000 10.724000 0.665000
15.032000 10.762000 -0.211000
15.090000 10.723000 0.357000
15.118000 10.686000 0.961000
15.045000 10.749000 -0.527000
15.111000 10.705000 0.066000
15.156000 10.662000 0.650000
15.140000 10.705000 -0.230000
15.194000 10.661000 0.341000
15.251000 10.643000 0.948000
15.165000 10.701000 -0.547000
15.219000 10.646000 0.048000
15.271000 10.606000 0.634000
15.246000 10.644000 -0.249000
15.307000 10.605000 0.325000
15.351000 10.575000 0.934000
15.273000 10.641000 -0.566000
15.369000 10.613000 0.032000
15.229000 10.441000 0.613000
15.371000 10.596000 -0.267000
15.245000 10.426000 0.305000
15.229000 10.355000 0.906000
15.416000 10.604000 -0.586000
15.288000 10.423000 0.015000
15.241000 10.314000 0.596000
15.330000 10.432000 -0.280000
15.257000 10.299000 0.289000
15.124000 10.149000 0.881000
15.347000 10.421000 -0.598000
15.253000 10.264000 0.000000
15.177000 10.135000 0.575000
15.299000 10.275000 -0.295000
15.216000 10.138000 0.272000
15.764000 10.438000 0.900000
15.316000 10.265000 -0.608000
15.262000 10.135000 -0.014000
15.812000 10.419000 0.583000
15.279000 10.128000 -0.308000
15.719000 10.334000 0.264000
15.879000 10.373000 0.888000
15.310000 10.126000 -0.621000
15.857000 10.391000 -0.030000
15.914000 10.347000 0.570000
15.908000 10.405000 -0.334000
15.869000 10.293000 0.252000
15.980000 10.298000 0.877000
15.929000 10.396000 -0.658000
16.007999 10.349000 -0.045000
16.093000 10.321000 0.560000
16.018999 10.337000 -0.350000
16.002001 10.240000 0.240000
16.138000 10.259000 0.869000
16.069000 10.347000 -0.675000
16.160000 10.307000 -0.058000
16.223000 10.263000 0.550000
16.195999 10.311000 -0.365000
16.238001 10.249000 0.229000
16.290001 10.212000 0.860000
16.221001 10.303000 -0.692000
16.282000 10.243000 -0.071000
16.341000 10.197000 0.539000
16.312000 10.242000 -0.379000
16.344999 10.174000 0.217000
16.420000 10.151000 0.852000
16.326000 10.228000 -0.707000
16.414000 10.183000 -0.084000
16.468000 10.132000 0.528000
16.444000 10.184000 -0.393000
16.527000 10.145000 0.207000
16.542000 10.084000 0.843000
16.474001 10.177000 -0.722000
16.594999 10.152000 -0.096000
16.660000 10.107000 0.521000
16.625999 10.152000 -0.408000
16.691999 10.103000 0.196000
16.743000 10.062000 0.838000
16.665001 10.152000 -0.739000
16.715000 10.083000 -0.108000
16.777000 10.034000 0.512000
16.747000 10.082000 -0.420000
16.799999 10.024000 0.186000
16.841999 9.977000 0.830000
16.766001 10.068000 -0.753000
16.848000 10.018000 -0.120000
16.903999 9.965000 0.503000
16.854000 10.002000 -0.432000
16.958000 9.974000 0.177000
17.004000 9.928000 0.825000
16.923000 10.017000 -0.767000
17.014000 9.972000 -0.130000
17.075001 9.921000 0.497000
17.044001 9.970000 -0.446000
17.100000 9.912000 0.167000
17.142000 9.863000 0.818000
17.073000 9.961000 -0.781000
17.139999 9.900000 -0.140000
17.173000 9.833000 0.488000
17.157000 9.890000 -0.456000
17.219999 9.836000 0.159000
17.266001 9.789000 0.813000
17.187000 9.880000 -0.793000
17.305000 9.849000 -0.151000
17.344999 9.785000 0.482000
17.334000 9.846000 -0.469000
17.403999 9.795000 0.151000
17.455000 9.750000 0.811000
17.309999 9.805000 -0.805000
17.457001 9.789000 -0.160000
17.443001 9.694000 0.475000
17.488001 9.785000 -0.480000
17.549000 9.730000 0.143000
17.576000 9.670000 0.804000
17.414000 9.718000 -0.815000
17.593000 9.719000 -0.169000
17.584000 9.627000 0.469000
17.625999 9.716000 -0.490000
17.715000 9.674000 0.137000
17.777000 9.633000 0.804000
17.535000 9.637000 -0.826000
17.759001 9.662000 -0.178000
17.709000 9.548000 0.463000
17.792000 9.660000 -0.501000
17.865000 9.609000 0.130000
17.875999 9.540000 0.798000
17.726999 9.595000 -0.839000
17.903999 9.592000 -0.186000
17.833000 9.467000 0.458000
17.924999 9.582000 -0.510000
18.017000 9.542000 0.123000
18.083000 9.501000 0.797000
17.899000 9.541000 -0.852000
18.061001 9.529000 -0.194000
18.028999 9.424000 0.455000
18.111000 9.533000 -0.520000
18.152000 9.464000 0.117000
18.211000 9.419000 0.795000
18.131001 9.513000 -0.866000
18.198999 9.452000 -0.202000
18.191000 9.361000 0.451000
18.246000 9.455000 -0.529000
18.347000 9.417000 0.112000
18.405001 9.371000 0.795000
18.304001 9.454000 -0.878000
18.409000 9.410000 -0.208000
18.396999 9.317000 0.450000
18.398001 9.382000 -0.537000
18.483999 9.337000 0.106000
18.521000 9.279000 0.791000
18.469999 9.389000 -0.889000
18.563000 9.339000 -0.215000
18.625000 9.283000 0.448000
18.591999 9.331000 -0.546000
18.671000 9.281000 0.102000
18.725000 9.232000 0.793000
18.646000 9.326000 -0.899000
18.709000 9.261000 -0.222000
18.749001 9.193000 0.444000
18.754000 9.261000 -0.554000
18.809999 9.199000 0.098000
18.862000 9.149000 0.791000
18.797001 9.250000 -0.909000
18.917999 9.213000 -0.227000
18.962999 9.147000 0.444000
18.945999 9.202000 -0.563000
19.011999 9.145000 0.094000
19.035000 9.081000 0.791000
18.980000 9.188000 -0.919000
19.040001 9.121000 -0.232000
19.101999 9.063000 0.442000
19.077000 9.114000 -0.569000
19.181000 9.075000 0.091000
19.257999 9.035000 0.795000
19.143999 9.112000 -0.928000
19.245001 9.064000 -0.238000
19.288000 8.999000 0.440000
18.872000 8.867000 -0.565000
19.323000 8.990000 0.088000
19.379999 8.941000 0.794000
19.264000 9.016000 -0.935000
19.406000 8.987000 -0.243000
19.485001 8.937000 0.441000
18.999001 8.775000 -0.570000
19.525999 8.930000 0.085000
19.298000 8.752000 0.785000
19.504999 8.976000 -0.947000
19.520000 8.888000 -0.247000
19.377001 8.737000 0.434000
19.434999 8.824000 -0.585000
19.431999 8.735000 0.082000
19.436001 8.663000 0.786000
19.419001 8.781000 -0.942000
19.486000 8.718000 -0.248000
19.431999 8.610000 0.431000
19.525999 8.713000 -0.588000
19.462000 8.598000 0.079000
19.349001 8.475000 0.778000
19.573999 8.698000 -0.950000
19.473000 8.561000 -0.250000
19.355000 8.427000 0.427000
19.489000 8.543000 -0.588000
19.372000 8.408000 0.076000
19.273001 8.293000 0.770000
19.514000 8.519000 -0.946000
19.386999 8.374000 -0.250000
19.274000 8.244000 0.422000
19.417999 8.362000 -0.586000
19.308001 8.232000 0.074000
19.218000 8.122000 0.764000
19.412001 8.323000 -0.940000
19.296000 8.185000 -0.250000
19.226000 8.076000 0.417000
19.329000 8.175000 -0.583000
19.221001 8.048000 0.072000
18.934000 7.859000 0.750000
19.353001 8.149000 -0.936000
19.136999 7.972000 -0.248000
19.018000 7.844000 0.411000
19.035000 7.903000 -0.574000
19.055000 7.832000 0.070000
19.096001 7.781000 0.752000
19.041000 7.871000 -0.920000
19.115999 7.818000 -0.248000
19.181999 7.767000 0.412000
19.160000 7.810000 -0.577000
19.221001 7.755000 0.069000
20.868999 8.345000 0.820000
19.235001 7.803000 -0.927000
19.308001 7.748000 -0.251000
20.976999 8.334000 0.449000
19.344000 7.738000 -0.582000
21.013000 8.321000 0.075000
21.033001 8.255000 0.824000
20.007999 7.965000 -0.962000
21.122999 8.318000 -0.274000
21.198000 8.264000 0.452000
20.566000 8.070000 -0.617000
21.224001 8.244000 0.075000
21.225000 8.170000 0.829000
21.215000 8.285000 -1.018000
20.790001 8.032000 -0.269000
21.408001 8.186000 0.455000
20.726999 7.978000 -0.621000
21.431999 8.165000 0.076000
21.399000 8.079000 0.834000
21.430000 8.206000 -1.026000
20.915001 7.922000 -0.270000
21.612000 8.103000 0.459000
21.584000 8.147000 -0.645000
21.211000 7.924000 0.075000
21.599001 7.996000 0.839000
21.634001 8.122000 -1.033000
21.087999 7.832000 -0.272000
21.837000 8.027000 0.463000
21.815001 8.070000 -0.649000
21.222000 7.770000 0.075000
21.826000 7.918000 0.847000
21.853001 8.042000 -1.040000
21.936001 7.985000 -0.281000
21.746000 7.834000 0.460000
21.993000 7.973000 -0.653000
21.434999 7.691000 0.076000
21.993999 7.826000 0.852000
22.034000 7.950000 -1.045000
22.129999 7.898000 -0.282000
21.528999 7.609000 0.455000
22.183001 7.897000 -0.656000
22.250999 7.847000 0.080000
22.157000 7.746000 0.857000
19.851999 7.044000 -0.939000
22.301001 7.833000 -0.283000
21.745001 7.564000 0.460000
22.341999 7.828000 -0.659000
22.389999 7.768000 0.081000
21.858000 7.520000 0.845000
19.771000 6.904000 -0.933000
22.459000 7.761000 -0.284000
22.514999 7.707000 0.476000
22.528000 7.764000 -0.662000
22.577999 7.707000 0.083000
21.952000 7.431000 0.848000
22.580000 7.755000 -1.063000
22.552000 7.667000 -0.284000
22.677000 7.636000 0.480000
22.684999 7.691000 -0.664000
22.718000 7.629000 0.084000
22.118000 7.363000 0.854000
22.737000 7.681000 -1.067000
22.798000 7.624000 -0.285000
22.861000 7.570000 0.484000
22.858999 7.623000 -0.667000
22.916000 7.567000 0.086000
22.839001 7.477000 0.882000
22.906000 7.610000 -1.072000
22.900000 7.529000 -0.284000
23.069000 7.512000 0.489000
23.044001 7.554000 -0.670000
23.108000 7.503000 0.088000
23.028999 7.414000 0.889000
19.132999 6.248000 -0.892000
19.204000 6.208000 -0.237000
19.268999 6.168000 0.409000
19.153999 6.173000 -0.555000
19.214001 6.133000 0.074000
19.281000 6.100000 0.744000
19.072001 6.122000 -0.887000
19.150999 6.086000 -0.235000
19.216999 6.045000 0.408000
19.115000 6.055000 -0.552000
19.163000 6.010000 0.075000
19.242001 5.983000 0.742000
19.000000 5.994000 -0.881000
19.087999 5.959000 -0.232000
19.163000 5.924000 0.408000
19.070000 5.935000 -0.548000
19.120001 5.892000 0.076000
19.177999 5.859000 0.740000
18.920000 5.862000 -0.874000
19.066000 5.848000 -0.230000
19.129000 5.809000 0.408000
19.004999 5.809000 -0.544000
19.073000 5.774000 0.077000
19.138000 5.741000 0.739000
18.754000 5.708000 -0.864000
19.011000 5.728000 -0.228000
19.079000 5.689000 0.407000
18.969999 5.695000 -0.541000
19.018999 5.654000 0.078000
19.090000 5.624000 0.737000
18.701000 5.589000 -0.858000
18.952999 5.605000 -0.225000
19.027000 5.572000 0.407000
18.913000 5.574000 -0.536000
18.978001 5.538000 0.079000
19.041000 5.507000 0.736000
18.775000 5.506000 -0.859000
18.909000 5.490000 -0.223000
18.988001 5.457000 0.407000
18.882000 5.461000 -0.533000
18.931000 5.422000 0.080000
19.002001 5.392000 0.735000
18.792000 5.409000 -0.857000
18.868999 5.376000 -0.221000
18.934000 5.339000 0.407000
18.826000 5.343000 -0.529000
18.882000 5.306000 0.082000
18.957001 5.278000 0.733000
18.891001 5.335000 -0.858000
18.948000 5.295000 -0.220000
18.966999 5.247000 0.408000
18.972000 5.282000 -0.531000
19.014999 5.241000 0.083000
19.048000 5.203000 0.737000
18.992001 5.259000 -0.860000
19.091999 5.233000 -0.219000
19.122000 5.188000 0.413000
19.128000 5.221000 -0.533000
19.171000 5.181000 0.086000
19.207001 5.143000 0.745000
19.028000 5.166000 -0.859000
19.226999 5.167000 -0.219000
19.273001 5.125000 0.417000
19.284000 5.160000 -0.535000
19.313999 5.116000 0.088000
19.363001 5.081000 0.751000
18.992001 5.054000 -0.854000
19.391001 5.106000 -0.219000
19.434999 5.065000 0.422000
19.424000 5.093000 -0.536000
19.488001 5.058000 0.090000
19.527000 5.022000 0.758000
18.976000 4.947000 -0.850000
19.562000 5.046000 -0.218000
19.579000 4.999000 0.426000
19.486000 5.004000 -0.535000
19.646999 4.995000 0.093000
19.677000 4.956000 0.765000
18.889999 4.823000 -0.844000
19.701000 4.978000 -0.218000
19.739000 4.934000 0.431000
19.482000 4.899000 -0.533000
19.784000 4.925000 0.096000
19.834999 4.891000 0.772000
18.701000 4.675000 -0.832000
19.871000 4.914000 -0.218000
19.910999 4.873000 0.436000
19.464001 4.791000 -0.529000
19.964001 4.863000 0.098000
19.982000 4.822000 0.778000
18.641001 4.560000 -0.826000
20.018999 4.845000 -0.217000
20.077999 4.808000 0.441000
19.386000 4.668000 -0.525000
20.115000 4.795000 0.100000
20.165001 4.761000 0.786000
18.622999 4.455000 -0.823000
19.990999 4.733000 -0.215000
20.240999 4.740000 0.446000
19.167999 4.514000 -0.517000
20.285000 4.728000 0.103000
20.327999 4.692000 0.793000
18.618000 4.356000 -0.820000
19.941999 4.616000 -0.211000
20.410999 4.674000 0.451000
19.150999 4.409000 -0.513000
20.468000 4.663000 0.106000
20.511000 4.628000 0.802000
18.573000 4.246000 -0.815000
19.923000 4.506000 -0.209000
20.597000 4.609000 0.457000
19.129000 4.302000 -0.510000
20.584000 4.582000 0.108000
20.677999 4.558000 0.809000
18.483000 4.127000 -0.808000
19.927999 4.403000 -0.207000
20.747000 4.534000 0.462000
19.086000 4.193000 -0.507000
20.527000 4.462000 0.110000
20.841000 4.485000 0.817000
18.427000 4.018000 -0.803000
19.865999 4.285000 -0.204000
20.937000 4.466000 0.467000
19.049999 4.085000 -0.503000
20.476999 4.344000 0.111000
21.018999 4.415000 0.825000
18.358000 3.906000 -0.797000
19.761999 4.159000 -0.201000
20.945000 4.360000 0.469000
18.983999 3.971000 -0.499000
20.423000 4.227000 0.113000
21.194000 4.343000 0.833000
18.298000 3.796000 -0.792000
19.684000 4.041000 -0.198000
20.924999 4.247000 0.470000
18.898001 3.854000 -0.495000
20.360001 4.108000 0.115000
21.351000 4.264000 0.840000
18.319000 3.705000 -0.790000
19.691999 3.940000 -0.196000
20.941999 4.142000 0.472000
18.750999 3.727000 -0.488000
20.306999 3.992000 0.116000
21.381001 4.161000 0.842000
18.365000 3.618000 -0.789000
19.604000 3.820000 -0.193000
20.893999 4.026000 0.472000
18.773001 3.634000 -0.486000
20.261999 3.879000 0.117000
21.339001 4.043000 0.842000
18.431000 3.535000 -0.790000
19.496000 3.699000 -0.190000
20.827999 3.906000 0.472000
18.833000 3.547000 -0.486000
20.209999 3.765000 0.119000
21.311001 3.928000 0.842000
18.431000 3.439000 -0.787000
19.271000 3.556000 -0.186000
20.775999 3.789000 0.472000
18.878000 3.458000 -0.485000
20.172001 3.654000 0.121000
21.278000 3.814000 0.841000
18.464001 3.349000 -0.786000
19.212999 3.446000 -0.183000
20.698999 3.670000 0.472000
18.830999 3.353000 -0.481000
20.098000 3.538000 0.121000
21.235001 3.698000 0.841000
18.469000 3.255000 -0.784000
19.245001 3.354000 -0.182000
20.617001 3.550000 0.472000
18.841999 3.257000 -0.480000
19.952000 3.410000 0.123000
21.188000 3.582000 0.840000
18.496000 3.164000 -0.782000
19.270000 3.259000 -0.180000
20.569000 3.436000 0.472000
18.865000 3.165000 -0.478000
19.826000 3.288000 0.123000
21.132999 3.466000 0.839000
18.496000 3.068000 -0.780000
19.264000 3.159000 -0.178000
20.530001 3.326000 0.472000
18.884001 3.071000 -0.476000
19.603001 3.150000 0.123000
21.073999 3.349000 0.838000
18.532000 2.978000 -0.779000
19.195000 3.050000 -0.176000
20.506001 3.218000 0.473000
18.871000 2.971000 -0.474000
19.596001 3.049000 0.125000
21.002001 3.232000 0.836000
18.527000 2.883000 -0.777000
19.181000 2.950000 -0.174000
20.433001 3.102000 0.472000
18.893999 2.879000 -0.473000
19.551001 2.943000 0.126000
20.892000 3.109000 0.832000
18.541000 2.789000 -0.775000
19.138000 2.845000 -0.172000
20.350000 2.987000 0.472000
18.889999 2.781000 -0.470000
19.524000 2.840000 0.127000
20.746000 2.982000 0.828000
18.532000 2.692000 -0.773000
19.138000 2.748000 -0.170000
20.139999 2.854000 0.468000
18.903999 2.686000 -0.469000
19.502001 2.738000 0.129000
20.590000 2.857000 0.823000
18.549000 2.601000 -0.771000
19.160000 2.654000 -0.168000
19.947001 2.726000 0.465000
18.886000 2.588000 -0.467000
19.493999 2.638000 0.130000
20.462000 2.736000 0.818000
18.551001 2.506000 -0.769000
19.159000 2.556000 -0.167000
19.886000 2.618000 0.465000
18.909000 2.495000 -0.465000
19.497000 2.540000 0.131000
20.533001 2.642000 0.822000
18.565001 2.414000 -0.768000
19.143999 2.458000 -0.165000
19.853001 2.514000 0.465000
18.922001 2.400000 -0.464000
19.510000 2.444000 0.133000
20.496000 2.535000 0.822000
18.565001 2.318000 -0.766000
19.125000 2.359000 -0.164000
19.882000 2.417000 0.467000
18.934000 2.306000 -0.463000
19.518999 2.347000 0.134000
20.398001 2.420000 0.818000
18.598000 2.228000 -0.765000
19.160999 2.267000 -0.162000
19.862000 2.316000 0.467000
18.938999 2.211000 -0.461000
19.534000 2.250000 0.135000
20.370001 2.315000 0.818000
18.593000 2.133000 -0.763000
19.171000 2.171000 -0.161000
19.895000 2.220000 0.469000
18.962000 2.117000 -0.460000
19.532000 2.152000 0.137000
20.415001 2.219000 0.821000
18.589001 2.038000 -0.762000
19.188000 2.076000 -0.160000
19.910999 2.122000 0.471000
18.962999 2.022000 -0.459000
19.546000 2.056000 0.138000
20.459000 2.121000 0.823000
18.603001 1.945000 -0.760000
19.212000 1.983000 -0.159000
19.981001 2.030000 0.473000
18.954000 1.925000 -0.457000
19.568001 1.959000 0.139000
20.547001 2.028000 0.828000
18.612000 1.852000 -0.759000
19.218000 1.887000 -0.158000
20.198000 1.951000 0.479000
18.969000 1.831000 -0.456000
19.570000 1.862000 0.140000
20.656000 1.937000 0.833000
18.624001 1.759000 -0.758000
19.243000 1.792000 -0.157000
20.407000 1.870000 0.485000
18.987000 1.738000 -0.455000
19.607000 1.768000 0.141000
20.660999 1.834000 0.834000
18.607000 1.663000 -0.756000
19.264000 1.699000 -0.156000
20.466000 1.773000 0.487000
18.990999 1.643000 -0.454000
19.641001 1.672000 0.143000
20.657000 1.732000 0.834000
18.611000 1.570000 -0.755000
19.277000 1.603000 -0.155000
20.517000 1.675000 0.489000
18.983999 1.547000 -0.453000
19.658001 1.576000 0.144000
20.691000 1.632000 0.836000
18.625000 1.477000 -0.754000
19.278999 1.506000 -0.154000
20.539000 1.576000 0.490000
18.965000 1.450000 -0.452000
19.663000 1.479000 0.144000
20.701000 1.530000 0.837000
18.625999 1.383000 -0.753000
19.278999 1.411000 -0.153000
20.539000 1.473000 0.491000
19.000999 1.357000 -0.451000
19.664000 1.380000 0.145000
20.716000 1.429000 0.838000
18.625000 1.290000 -0.752000
19.261999 1.313000 -0.152000
20.551001 1.372000 0.492000
19.014999 1.264000 -0.451000
19.684999 1.285000 0.146000
20.732000 1.328000 0.839000
18.620001 1.196000 -0.751000
19.261000 1.217000 -0.151000
20.558001 1.272000 0.493000
19.018999 1.169000 -0.450000
19.608000 1.182000 0.146000
20.750000 1.226000 0.840000
18.625000 1.102000 -0.750000
19.268000 1.122000 -0.151000
20.563999 1.170000 0.493000
19.010000 1.073000 -0.449000
19.547001 1.082000 0.146000
20.759001 1.125000 0.841000
18.604000 1.008000 -0.749000
19.302999 1.027000 -0.151000
20.566000 1.068000 0.494000
18.982000 0.977000 -0.448000
19.541000 0.984000 0.147000
20.768999 1.023000 0.842000
18.598000 0.914000 -0.748000
19.309000 0.931000 -0.150000
20.569000 0.967000 0.494000
18.983000 0.882000 -0.447000
19.499001 0.885000 0.147000
20.771999 0.921000 0.842000
18.605000 0.821000 -0.747000
19.282000 0.835000 -0.149000
20.573000 0.865000 0.495000
18.964001 0.786000 -0.446000
19.488001 0.789000 0.147000
20.761000 0.818000 0.842000
18.601999 0.729000 -0.747000
19.290001 0.739000 -0.149000
20.552999 0.763000 0.494000
18.974001 0.693000 -0.446000
19.469999 0.691000 0.147000
20.756001 0.715000 0.842000
18.566999 0.634000 -0.745000
19.267000 0.642000 -0.148000
20.549999 0.662000 0.495000
18.934000 0.596000 -0.445000
19.474001 0.595000 0.147000
20.778000 0.615000 0.843000
18.561001 0.541000 -0.744000
19.242001 0.546000 -0.148000
20.563999 0.561000 0.495000
18.905001 0.501000 -0.444000
19.450001 0.499000 0.147000
20.783001 0.512000 0.843000
18.518999 0.447000 -0.742000
19.249001 0.451000 -0.148000
20.570999 0.459000 0.495000
18.881001 0.407000 -0.443000
19.468000 0.402000 0.148000
20.752001 0.409000 0.842000
18.566999 0.356000 -0.744000
19.207001 0.354000 -0.147000
20.572001 0.359000 0.495000
18.860001 0.312000 -0.442000
19.455000 0.306000 0.148000
20.745001 0.308000 0.842000
18.561001 0.263000 -0.744000
19.183001 0.259000 -0.147000
20.579000 0.257000 0.496000
18.868999 0.219000 -0.443000
19.452000 0.210000 0.148000
20.707001 0.205000 0.840000
18.525000 0.170000 -0.742000
19.142000 0.165000 -0.147000
20.573999 0.155000 0.495000
18.854000 0.125000 -0.442000
19.441000 0.114000 0.147000
20.704000 0.103000 0.840000
18.475000 0.077000 -0.740000
19.159000 0.069000 -0.147000
20.547001 0.053000 0.495000
18.839001 0.031000 -0.442000
19.459000 0.016000 0.147000
20.679001 0.001000 0.839000
18.415001 -0.014000 -0.738000
19.131001 -0.026000 -0.147000
20.565001 -0.046000 0.495000
18.816000 -0.062000 -0.442000
19.482000 -0.078000 0.147000
20.662001 -0.099000 0.838000
18.426001 -0.107000 -0.739000
19.127001 -0.120000 -0.147000
20.558001 -0.148000 0.494000
18.756001 -0.155000 -0.441000
19.461000 -0.173000 0.147000
20.636000 -0.202000 0.836000
18.370001 -0.198000 -0.737000
19.077999 -0.214000 -0.147000
20.541000 -0.249000 0.494000
18.718000 -0.247000 -0.440000
19.466999 -0.271000 0.147000
20.610001 -0.302000 0.835000
18.396000 -0.289000 -0.738000
19.018999 -0.308000 -0.147000
20.531000 -0.349000 0.493000
18.697001 -0.340000 -0.440000
19.464001 -0.366000 0.146000
20.561001 -0.402000 0.833000
18.375000 -0.382000 -0.738000
18.995001 -0.401000 -0.147000
20.466999 -0.449000 0.491000
18.698000 -0.434000 -0.441000
19.438000 -0.461000 0.146000
20.541000 -0.503000 0.831000
18.388000 -0.473000 -0.739000
18.936001 -0.493000 -0.147000
20.445999 -0.550000 0.490000
18.686001 -0.526000 -0.441000
19.389000 -0.556000 0.145000
20.559999 -0.604000 0.832000
18.375999 -0.564000 -0.739000
18.916000 -0.588000 -0.148000
20.471001 -0.651000 0.490000
18.674000 -0.618000 -0.441000
19.316000 -0.650000 0.144000
20.607000 -0.706000 0.833000
18.381001 -0.658000 -0.740000
18.903999 -0.681000 -0.148000
20.492001 -0.753000 0.490000
18.677999 -0.712000 -0.442000
19.292000 -0.744000 0.143000
20.590000 -0.807000 0.832000
18.372000 -0.748000 -0.741000
18.898001 -0.773000 -0.149000
20.481001 -0.854000 0.489000
18.688000 -0.805000 -0.443000
19.250999 -0.838000 0.142000
20.556000 -0.907000 0.830000
18.368999 -0.840000 -0.741000
18.875999 -0.867000 -0.150000
20.465000 -0.953000 0.488000
18.674000 -0.897000 -0.444000
19.162001 -0.929000 0.140000
20.556000 -1.008000 0.829000
18.393000 -0.934000 -0.743000
18.910999 -0.962000 -0.151000
20.488001 -1.056000 0.488000
18.695000 -0.992000 -0.445000
19.124001 -1.021000 0.139000
20.559000 -1.109000 0.828000
18.395000 -1.025000 -0.745000
18.896000 -1.055000 -0.152000
20.490999 -1.157000 0.487000
18.667000 -1.083000 -0.445000
19.089001 -1.114000 0.138000
20.589001 -1.213000 0.829000
18.393000 -1.117000 -0.746000
18.908001 -1.151000 -0.153000
20.518999 -1.260000 0.487000
18.663000 -1.176000 -0.447000
19.059999 -1.207000 0.137000
20.555000 -1.311000 0.827000
18.400999 -1.210000 -0.747000
18.848000 -1.240000 -0.153000
20.518000 -1.361000 0.486000
18.634001 -1.267000 -0.447000
19.063999 -1.301000 0.136000
20.525000 -1.411000 0.825000
18.466000 -1.307000 -0.751000
18.874001 -1.335000 -0.155000
20.495001 -1.461000 0.485000
18.656000 -1.361000 -0.449000
19.062000 -1.396000 0.135000
20.525999 -1.512000 0.824000
18.420000 -1.395000 -0.751000
18.836000 -1.426000 -0.156000
20.493000 -1.562000 0.483000
18.648001 -1.454000 -0.450000
19.045000 -1.489000 0.134000
20.559999 -1.616000 0.824000
18.466000 -1.492000 -0.754000
18.799000 -1.517000 -0.156000
20.471001 -1.661000 0.482000
18.635000 -1.547000 -0.451000
19.054001 -1.584000 0.133000
20.569000 -1.718000 0.824000
18.478001 -1.586000 -0.756000
18.782000 -1.609000 -0.157000
20.471001 -1.764000 0.481000
18.606001 -1.637000 -0.452000
19.065001 -1.680000 0.131000
20.541000 -1.818000 0.822000
18.489000 -1.679000 -0.758000
18.746000 -1.699000 -0.159000
20.462000 -1.864000 0.479000
18.618999 -1.731000 -0.454000
19.052000 -1.774000 0.130000
20.559000 -1.920000 0.821000
18.514999 -1.775000 -0.761000
18.761000 -1.795000 -0.160000
20.336000 -1.952000 0.475000
18.611000 -1.824000 -0.455000
19.079000 -1.871000 0.129000
20.591999 -2.026000 0.822000
18.514000 -1.869000 -0.763000
18.799999 -1.892000 -0.162000
20.099001 -2.030000 0.468000
18.622000 -1.918000 -0.457000
19.079000 -1.966000 0.128000
20.594999 -2.129000 0.821000
18.509001 -1.961000 -0.764000
18.816000 -1.988000 -0.164000
20.045000 -2.124000 0.466000
18.653999 -2.015000 -0.460000
19.070999 -2.061000 0.126000
20.601000 -2.231000 0.820000
18.500999 -2.053000 -0.766000
18.830000 -2.084000 -0.165000
19.868000 -2.204000 0.461000
18.652000 -2.109000 -0.461000
19.063000 -2.154000 0.125000
20.556000 -2.328000 0.817000
18.497000 -2.147000 -0.768000
18.820999 -2.177000 -0.167000
19.825001 -2.298000 0.458000
18.625000 -2.199000 -0.462000
19.076000 -2.251000 0.123000
20.569000 -2.432000 0.816000
18.431999 -2.232000 -0.767000
18.764000 -2.264000 -0.168000
19.875999 -2.403000 0.458000
18.601999 -2.291000 -0.464000
19.122999 -2.353000 0.122000
20.573999 -2.535000 0.815000
18.461000 -2.329000 -0.771000
18.743000 -2.356000 -0.169000
20.145000 -2.536000 0.463000
18.601000 -2.384000 -0.466000
19.108000 -2.446000 0.121000
20.476999 -2.625000 0.810000
18.466000 -2.424000 -0.773000
18.773001 -2.454000 -0.171000
20.186001 -2.642000 0.462000
18.643999 -2.484000 -0.468000
19.122000 -2.544000 0.119000
20.427000 -2.721000 0.807000
18.466999 -2.517000 -0.775000
18.726000 -2.542000 -0.173000
20.188000 -2.744000 0.461000
18.622000 -2.575000 -0.470000
19.149000 -2.643000 0.117000
20.375999 -2.815000 0.804000
18.466999 -2.611000 -0.778000
18.715000 -2.636000 -0.174000
20.014000 -2.820000 0.456000
18.659000 -2.674000 -0.473000
19.186001 -2.745000 0.116000
20.283001 -2.904000 0.799000
18.504000 -2.711000 -0.781000
18.726999 -2.731000 -0.176000
19.903999 -2.904000 0.451000
18.671000 -2.771000 -0.475000
19.211000 -2.846000 0.114000
20.250000 -3.001000 0.796000
18.504000 -2.805000 -0.784000
18.747000 -2.829000 -0.179000
19.724001 -2.978000 0.446000
18.674999 -2.866000 -0.478000
19.219999 -2.944000 0.113000
20.378000 -3.122000 0.800000
18.500000 -2.899000 -0.786000
18.834999 -2.938000 -0.181000
19.628000 -3.061000 0.442000
18.658001 -2.958000 -0.480000
19.237000 -3.044000 0.111000
20.480000 -3.240000 0.803000
18.497000 -2.993000 -0.789000
18.879999 -3.040000 -0.184000
19.600000 -3.156000 0.440000
18.714001 -3.063000 -0.483000
19.282000 -3.149000 0.110000
20.586000 -3.360000 0.805000
18.540001 -3.095000 -0.793000
18.917000 -3.143000 -0.186000
19.663000 -3.266000 0.440000
18.729000 -3.160000 -0.486000
19.280001 -3.245000 0.108000
22.445000 -3.777000 0.877000
18.552000 -3.192000 -0.796000
18.943001 -3.244000 -0.188000
19.747000 -3.379000 0.441000
18.743000 -3.259000 -0.489000
19.287001 -3.345000 0.106000
22.403000 -3.884000 0.874000
18.589001 -3.293000 -0.801000
18.997999 -3.349000 -0.191000
20.073000 -3.537000 0.446000
18.829000 -3.371000 -0.493000
19.322001 -3.449000 0.104000
22.356001 -3.988000 0.871000
18.611000 -3.393000 -0.804000
19.030001 -3.452000 -0.194000
20.291000 -3.679000 0.449000
18.871000 -3.474000 -0.497000
19.385000 -3.559000 0.103000
22.318001 -4.095000 0.868000
18.601000 -3.488000 -0.807000
19.082001 -3.560000 -0.196000
22.315001 -4.158000 0.493000
18.895000 -3.576000 -0.500000
19.493000 -3.679000 0.102000
22.277000 -4.200000 0.865000
18.586000 -3.580000 -0.809000
19.148001 -3.670000 -0.199000
22.278999 -4.265000 0.490000
18.906000 -3.676000 -0.502000
19.871000 -3.852000 0.102000
22.225000 -4.303000 0.861000
18.638000 -3.687000 -0.813000
19.238001 -3.786000 -0.202000
22.252001 -4.374000 0.488000
18.903000 -3.772000 -0.505000
20.333000 -4.045000 0.102000
22.174000 -4.406000 0.858000
18.681999 -3.793000 -0.818000
19.319000 -3.900000 -0.205000
22.188999 -4.474000 0.485000
18.981001 -3.886000 -0.510000
22.200001 -4.531000 0.110000
22.129000 -4.511000 0.855000
18.684000 -3.890000 -0.821000
19.594999 -4.058000 -0.210000
22.139000 -4.578000 0.481000
18.990000 -3.986000 -0.512000
22.149000 -4.633000 0.107000
22.181000 -4.634000 0.856000
18.704000 -3.992000 -0.825000
20.024000 -4.250000 -0.217000
22.101000 -4.684000 0.479000
19.028999 -4.093000 -0.516000
22.101999 -4.738000 0.105000
22.611000 -4.840000 0.871000
18.750000 -4.099000 -0.830000
20.344000 -4.423000 -0.223000
22.054001 -4.787000 0.477000
19.308001 -4.253000 -0.526000
22.066999 -4.845000 0.103000
22.833000 -5.005000 0.878000
18.760000 -4.199000 -0.833000
22.063000 -4.911000 -0.244000
22.007000 -4.890000 0.474000
19.582001 -4.416000 -0.536000
22.030001 -4.950000 0.100000
51.847000 -11.632000 1.992000
18.920000 -4.334000 -0.843000
22.028999 -5.018000 -0.247000
21.983000 -4.998000 0.471000
20.115999 -4.641000 -0.553000
21.982000 -5.053000 0.098000
51.783001 -11.885000 1.987000
18.987000 -4.450000 -0.849000
21.996000 -5.125000 -0.249000
22.263000 -5.177000 0.476000
20.809000 -4.910000 -0.576000
21.948999 -5.160000 0.096000
44.821999 -10.520000 1.717000
19.218000 -4.604000 -0.863000
21.943001 -5.227000 -0.250000
22.638000 -5.382000 0.482000
21.396999 -5.160000 -0.595000
21.902000 -5.262000 0.094000
51.577999 -12.371000 1.973000
19.513000 -4.778000 -0.879000
21.914000 -5.335000 -0.253000
22.773001 -5.532000 0.484000
21.882000 -5.392000 -0.611000
21.854000 -5.365000 0.091000
51.472000 -12.614000 1.968000
20.073000 -5.021000 -0.908000
21.854000 -5.434000 -0.254000
45.035000 -11.176000 0.955000
21.885000 -5.509000 -0.614000
21.865999 -5.483000 0.090000
48.237999 -12.073000 1.841000
20.507999 -5.238000 -0.930000
21.830999 -5.544000 -0.256000
42.714001 -10.823000 0.902000
21.816999 -5.606000 -0.615000
22.268999 -5.700000 0.090000
51.264999 -13.097000 1.955000
21.197001 -5.527000 -0.964000
21.788000 -5.648000 -0.258000
42.766998 -11.059000 0.900000
21.798000 -5.717000 -0.617000
22.547001 -5.890000 0.088000
51.202000 -13.350000 1.952000
21.469999 -5.713000 -0.981000
21.737000 -5.749000 -0.260000
42.584999 -11.237000 0.895000
21.768999 -5.825000 -0.619000
41.905998 -11.167000 0.161000
51.098000 -13.589000 1.946000
21.563999 -5.853000 -0.988000
21.712999 -5.858000 -0.261000
42.521000 -11.444000 0.890000
21.728001 -5.929000 -0.621000
41.771000 -11.353000 0.158000
47.476002 -12.876000 1.805000
21.576000 -5.972000 -0.992000
21.865999 -6.015000 -0.266000
42.424000 -11.640000 0.886000
21.690001 -6.035000 -0.622000
41.470001 -11.491000 0.153000
50.893002 -14.072000 1.935000
21.629000 -6.102000 -0.998000
22.353001 -6.267000 -0.274000
42.358002 -11.847000 0.884000
21.635000 -6.135000 -0.624000
41.493999 -11.716000 0.150000
50.808998 -14.315000 1.931000
21.608999 -6.212000 -1.000000
22.556000 -6.445000 -0.278000
42.286999 -12.052000 0.879000
21.577999 -6.234000 -0.624000
41.104000 -11.826000 0.147000
50.709000 -14.556000 1.925000
21.563000 -6.316000 -1.000000
35.876999 -10.443000 -0.447000
42.365002 -12.298000 0.879000
21.580000 -6.351000 -0.626000
41.053001 -12.030000 0.143000
50.629002 -14.800000 1.921000
21.534000 -6.424000 -1.003000
35.854000 -10.627000 -0.450000
42.596001 -12.593000 0.883000
21.962999 -6.582000 -0.641000
41.047001 -12.247000 0.140000
50.508999 -15.036000 1.917000
21.669001 -6.581000 -1.012000
35.745998 -10.788000 -0.450000
42.922001 -12.919000 0.888000
22.280001 -6.797000 -0.652000
41.037998 -12.465000 0.139000
50.409000 -15.275000 1.912000
26.256001 -8.116000 -1.230000
35.671001 -10.958000 -0.453000
41.956001 -12.852000 0.866000
30.643000 -9.515000 -0.900000
42.417999 -13.113000 0.140000
50.314999 -15.515000 1.908000
26.040001 -8.193000 -1.223000
35.859001 -11.208000 -0.458000
41.834000 -13.041000 0.864000
30.575001 -9.660000 -0.902000
41.099998 -12.926000 0.134000
50.250000 -15.766000 1.907000
25.913000 -8.293000 -1.221000
36.105000 -11.482000 -0.463000
41.727001 -13.232000 0.860000
30.471001 -9.792000 -0.902000
41.050999 -13.134000 0.133000
50.109001 -15.992000 1.901000
25.788000 -8.394000 -1.218000
33.963001 -10.985000 -0.439000
41.662998 -13.436000 0.858000
30.356001 -9.922000 -0.900000
41.033001 -13.351000 0.130000
50.048000 -16.240999 1.900000
25.667000 -8.496000 -1.215000
36.319000 -11.944000 -0.472000
41.594002 -13.640000 0.858000
26.250000 -8.723000 -0.782000
40.997002 -13.560000 0.129000
48.345001 -15.951000 1.838000
25.598000 -8.615000 -1.215000
36.202999 -12.102000 -0.472000
41.583000 -13.863000 0.856000
26.117001 -8.822000 -0.780000
40.708000 -13.688000 0.128000
49.801998 -16.702999 1.893000
25.554001 -8.740000 -1.216000
36.174000 -12.293000 -0.474000
41.375999 -14.018000 0.852000
26.059999 -8.947000 -0.780000
42.646000 -14.573000 0.132000
48.872002 -16.655001 1.860000
25.511000 -8.867000 -1.216000
36.164001 -12.487000 -0.475000
41.306999 -14.218000 0.851000
26.020000 -9.077000 -0.781000
42.821999 -14.867000 0.132000
48.213001 -16.695999 1.838000
25.495001 -9.003000 -1.219000
36.158001 -12.683000 -0.477000
41.247002 -14.427000 0.851000
25.989000 -9.209000 -0.782000
41.201000 -14.532000 0.128000
48.103001 -16.921000 1.835000
25.476000 -9.138000 -1.220000
36.042999 -12.844000 -0.476000
49.410000 -17.552000 1.020000
25.983000 -9.352000 -0.783000
40.879002 -14.644000 0.125000
48.076000 -17.173000 1.837000
25.466999 -9.277000 -1.222000
36.048000 -13.045000 -0.477000
42.728001 -15.411000 0.884000
25.929001 -9.477000 -0.783000
41.821999 -15.212000 0.128000
49.251999 -17.865999 1.887000
25.452000 -9.415000 -1.224000
35.945999 -13.206000 -0.477000
42.837002 -15.691000 0.888000
26.181999 -9.723000 -0.791000
42.126999 -15.569000 0.130000
49.167000 -18.118999 1.886000
25.421000 -9.559000 -1.225000
35.990002 -13.454000 -0.478000
47.896999 -17.861000 0.996000
25.921000 -9.800000 -0.786000
42.782001 -16.108999 0.133000
47.848999 -17.981001 1.841000
25.356001 -9.721000 -1.223000
36.047001 -13.737000 -0.477000
47.776001 -18.159000 0.997000
25.907000 -9.983000 -0.786000
41.987999 -16.114000 0.133000
48.962002 -18.752001 1.890000
25.284000 -9.880000 -1.222000
35.938999 -13.959000 -0.477000
47.702999 -18.481001 1.000000
25.954000 -10.191000 -0.787000
41.349998 -16.171000 0.134000
48.724998 -19.013000 1.888000
25.268000 -10.059000 -1.223000
35.909000 -14.208000 -0.475000
47.432999 -18.721001 1.000000
30.808001 -12.325000 -0.936000
38.675999 -15.408000 0.127000
47.167000 -18.752001 1.835000
25.318001 -10.268000 -1.227000
35.889999 -14.466000 -0.472000
48.729000 -19.587000 1.033000
30.778999 -12.539000 -0.935000
38.917999 -15.789000 0.131000
48.448002 -19.614000 1.894000
25.358999 -10.472000 -1.230000
35.879002 -14.726000 -0.471000
41.077000 -16.816000 0.877000
30.732000 -12.750000 -0.933000
38.910000 -16.073999 0.137000
47.075001 -19.402000 1.849000
25.443001 -10.695000 -1.234000
35.958000 -15.023000 -0.470000
41.180000 -17.160000 0.886000
30.781000 -12.998000 -0.934000
38.595001 -16.229000 0.139000
46.868000 -19.666000 1.852000
25.909000 -11.087000 -1.257000
35.911999 -15.272000 -0.464000
48.368000 -20.511000 1.050000
30.778999 -13.226000 -0.932000
43.832001 -18.754999 0.165000
48.252998 -20.603001 1.918000
26.780001 -11.660000 -1.299000
35.903000 -15.536000 -0.462000
48.201000 -20.802000 1.056000
30.792999 -13.465000 -0.930000
43.959000 -19.138000 0.174000
48.132999 -20.908001 1.926000
26.965000 -11.943000 -1.307000
35.935001 -15.817000 -0.457000
48.101002 -21.115999 1.065000
30.874001 -13.732000 -0.930000
43.998001 -19.485001 0.181000
46.470001 -20.535999 1.872000
26.861000 -12.102000 -1.301000
36.150002 -16.184000 -0.453000
47.995998 -21.427000 1.074000
30.915001 -13.982000 -0.927000
44.035000 -19.830999 0.190000
47.896000 -21.524000 1.944000
26.829000 -12.291000 -1.297000
36.165001 -16.464001 -0.448000
47.870998 -21.735001 1.084000
30.947001 -14.234000 -0.924000
44.129002 -20.207001 0.203000
46.308998 -21.157000 1.895000
26.813000 -12.487000 -1.294000
36.181999 -16.743999 -0.442000
47.735001 -22.031000 1.095000
30.952999 -14.471000 -0.920000
44.654999 -20.785999 0.215000
47.657001 -22.136999 1.967000
26.679001 -12.630000 -1.284000
36.293999 -17.073000 -0.433000
46.102001 -21.625000 1.072000
29.763000 -14.140000 -0.879000
44.456001 -21.030001 0.226000
47.522999 -22.433001 1.980000
26.705000 -12.847000 -1.282000
36.284000 -17.344000 -0.426000
47.505001 -22.648001 1.122000
29.714001 -14.347000 -0.871000
44.518002 -21.402000 0.240000
45.911999 -22.021000 1.931000
26.430000 -12.917000 -1.264000
36.283001 -17.620001 -0.416000
29.593000 -14.333000 0.710000
31.115000 -15.261000 -0.905000
44.798000 -21.878000 0.256000
45.171001 -22.014000 1.920000
26.020000 -12.920000 -1.240000
36.451000 -17.985001 -0.407000
44.723000 -22.002001 1.090000
31.156000 -15.520000 -0.898000
44.724998 -22.183001 0.272000
45.731998 -22.636000 1.965000
26.216000 -13.219000 -1.243000
36.521999 -18.299999 -0.396000
44.585999 -22.281000 1.106000
31.236000 -15.804000 -0.892000
44.580002 -22.458000 0.288000
47.018002 -23.632999 2.043000
26.183001 -13.404000 -1.235000
28.079000 -14.285000 -0.294000
47.014000 -23.855000 1.188000
26.780001 -13.756000 -0.756000
45.251999 -23.145000 0.311000
45.456001 -23.202999 2.000000
25.681999 -13.350000 -1.205000
26.523001 -13.701000 -0.268000
44.657001 -23.003000 1.150000
25.674000 -13.386000 -0.716000
44.352001 -23.027000 0.325000
45.324001 -23.486000 2.019000
24.087999 -12.709000 -1.123000
24.698999 -12.950000 -0.239000
44.242001 -23.136000 1.163000
23.806000 -12.600000 -0.655000
44.230000 -23.311001 0.345000
45.347000 -23.849001 2.047000
22.711000 -12.160000 -1.051000
37.376999 -19.886999 -0.346000
44.020000 -23.362000 1.181000
22.650999 -12.165000 -0.614000
44.146999 -23.610001 0.367000
45.098999 -24.073999 2.064000
21.405001 -11.630000 -0.982000
37.509998 -20.254000 -0.329000
44.132999 -23.764999 1.210000
21.327000 -11.621000 -0.569000
44.129002 -23.943001 0.391000
44.945000 -24.341999 2.086000
27.306000 -15.051000 -1.243000
37.860001 -20.737000 -0.313000
44.880001 -24.521000 1.259000
31.583000 -17.459999 -0.828000
45.012001 -24.780001 0.425000
44.764999 -24.594999 2.109000
27.410000 -15.323000 -1.235000
38.036999 -21.131001 -0.293000
44.763000 -24.806999 1.285000
31.723000 -17.785000 -0.815000
43.681000 -24.388000 0.439000
44.660000 -24.893999 2.137000
27.662001 -15.685000 -1.234000
38.310001 -21.587999 -0.273000
44.691002 -25.121000 1.312000
31.903000 -18.136999 -0.803000
43.512001 -24.635000 0.466000
44.554001 -25.184000 2.166000
27.745001 -15.950000 -1.223000
38.660000 -22.089001 -0.251000
44.551998 -25.396000 1.343000
32.005001 -18.451000 -0.787000
43.846001 -25.174000 0.500000
44.488998 -25.500000 2.197000
27.875000 -16.245001 -1.214000
39.054001 -22.620001 -0.228000
44.432999 -25.677999 1.373000
32.263000 -18.854000 -0.773000
43.667999 -25.416000 0.530000
44.340000 -25.768999 2.230000
27.989000 -16.535999 -1.203000
39.186001 -23.010000 -0.201000
44.300999 -25.952999 1.403000
32.362000 -19.166000 -0.754000
45.778000 -27.006001 0.591000
44.178001 -26.025000 2.261000
28.142000 -16.849001 -1.192000
39.573002 -23.549000 -0.174000
44.286999 -26.299000 1.443000
32.657001 -19.603001 -0.738000
44.133999 -26.389000 0.606000
44.226002 -26.406000 2.302000
28.274000 -17.150999 -1.179000
39.917000 -24.069000 -0.145000
44.028000 -26.493999 1.474000
32.791000 -19.941999 -0.717000
44.007000 -26.660999 0.642000
44.155998 -26.719000 2.345000
28.389000 -17.448000 -1.163000
40.283001 -24.613001 -0.112000
44.172001 -26.933001 1.518000
33.178001 -20.440001 -0.699000
44.639000 -27.396999 0.691000
43.938999 -26.938000 2.378000
28.610001 -17.811001 -1.151000
40.726002 -25.205000 -0.078000
42.257999 -26.104000 1.496000
33.433998 -20.867001 -0.677000
41.681999 -25.919001 0.685000
44.308998 -27.521000 2.443000
28.753000 -18.127001 -1.134000
41.053001 -25.732000 -0.042000
45.210999 -28.287001 1.648000
33.724998 -21.313999 -0.653000
41.966000 -26.426001 0.731000
45.098999 -28.375000 2.540000
28.954000 -18.486000 -1.117000
41.493999 -26.341999 -0.002000
45.084000 -28.569000 1.689000
34.091000 -21.815001 -0.629000
41.551998 -26.495001 0.767000
44.980000 -28.659000 2.585000
29.207001 -18.878000 -1.101000
41.730000 -26.820999 0.039000
41.876999 -26.872999 1.619000
34.377998 -22.274000 -0.601000
41.264999 -26.643999 0.807000
44.861000 -28.945000 2.630000
29.268999 -19.150000 -1.077000
40.944000 -26.638000 0.081000
41.351002 -26.864000 1.647000
34.790001 -22.815001 -0.572000
41.292999 -26.989000 0.854000
44.752998 -29.237000 2.683000
29.612000 -19.610001 -1.059000
41.645000 -27.424000 0.126000
44.722000 -29.410000 1.834000
35.130001 -23.315001 -0.543000
41.560001 -27.493000 0.908000
44.624001 -29.509001 2.734000
29.836000 -19.992001 -1.036000
40.563000 -27.034000 0.173000
44.605999 -29.691999 1.889000
35.612000 -23.917000 -0.508000
41.459000 -27.754000 0.955000
44.502998 -29.785000 2.785000
30.177999 -20.459000 -1.017000
40.743999 -27.474001 0.222000
43.345001 -29.195999 1.893000
36.047001 -24.490999 -0.472000
40.431999 -27.388000 0.986000
42.986000 -29.117001 2.754000
30.391001 -20.841000 -0.987000
41.464001 -28.285000 0.276000
42.404999 -28.900000 1.908000
36.473000 -25.066999 -0.435000
41.331001 -28.322001 1.063000
41.830002 -28.667000 2.741000
30.615999 -21.232000 -0.958000
40.606998 -28.020000 0.326000
41.040001 -28.296000 1.909000
37.056999 -25.759001 -0.392000
40.741001 -28.239000 1.103000
44.180000 -30.631001 2.961000
31.039000 -21.767000 -0.935000
40.759998 -28.441000 0.383000
40.680000 -28.368000 1.952000
38.021999 -26.722000 -0.352000
40.666000 -28.504999 1.162000
44.076000 -30.912001 3.027000
31.441000 -22.292000 -0.904000
40.665001 -28.691999 0.438000
40.591000 -28.625999 2.009000
37.910000 -26.936001 -0.300000
40.574001 -28.756001 1.221000
43.948002 -31.169001 3.090000
31.773001 -22.768000 -0.870000
40.569000 -28.938999 0.500000
40.463001 -28.855000 2.070000
38.485001 -27.641001 -0.247000
40.450001 -28.983000 1.278000
43.838001 -31.437000 3.154000
32.199001 -23.318001 -0.838000
40.459999 -29.169001 0.560000
40.348999 -29.086000 2.131000
39.209999 -28.459000 -0.193000
40.362000 -29.233000 1.343000
43.800999 -31.757999 3.232000
32.589001 -23.848000 -0.798000
40.339001 -29.389000 0.620000
40.252998 -29.329000 2.193000
39.931000 -29.283001 -0.136000
40.273998 -29.478001 1.406000
43.706001 -32.029999 3.304000
33.117001 -24.481001 -0.760000
40.270000 -29.643999 0.689000
40.181999 -29.589001 2.264000
40.266998 -29.832001 -0.070000
40.202999 -29.729000 1.473000
43.634998 -32.317001 3.378000
33.563000 -25.059000 -0.719000
40.186001 -29.884001 0.754000
40.077999 -29.816999 2.331000
40.181000 -30.065001 -0.002000
40.075001 -29.938000 1.543000
43.557999 -32.598000 3.459000
34.151001 -25.747000 -0.672000
40.088001 -30.106001 0.822000
40.026001 -30.083000 2.402000
40.105999 -30.302999 0.064000
39.967999 -30.157000 1.610000
43.480999 -32.873001 3.540000
34.987000 -26.628000 -0.629000
39.999001 -30.334000 0.896000
39.897999 -30.287001 2.475000
40.007999 -30.518999 0.138000
39.881001 -30.385000 1.683000
0.000000 0.000000 0.000000
35.973000 -27.635000 -0.585000
