# This PCD file was generated using the MATLAB® pcwrite function
# from Computer Vision Toolbox®.
# .PCD v.7 - Point Cloud Data file format
VERSION .7
FIELDS x y z
SIZE 4 4 4
TYPE F F F
COUNT 1 1 1
WIDTH 1577
HEIGHT 1
VIEWPOINT 0 0 0 1 0 0 0
POINTS 1577
DATA ascii
14.050000 -0.977000 -2.434000
15.995000 -1.119000 -2.219000
11.709000 -0.857000 -2.631000
13.195000 -0.965000 -2.502000
15.053000 -1.109000 -2.348000
12.413000 -0.947000 -2.566000
14.049000 -1.075000 -2.437000
15.994000 -1.230000 -2.222000
11.667000 -0.938000 -2.625000
13.183000 -1.058000 -2.503000
15.047000 -1.213000 -2.351000
12.398000 -1.034000 -2.566000
14.034000 -1.172000 -2.438000
15.947000 -1.337000 -2.219000
11.692000 -1.024000 -2.634000
13.142000 -1.148000 -2.499000
15.028000 -1.317000 -2.351000
12.376000 -1.122000 -2.565000
14.019000 -1.270000 -2.439000
15.969000 -1.449000 -2.226000
11.662000 -1.106000 -2.631000
13.151000 -1.242000 -2.504000
14.998000 -1.420000 -2.350000
12.377000 -1.210000 -2.569000
14.002000 -1.367000 -2.439000
15.953000 -1.559000 -2.227000
11.664000 -1.191000 -2.635000
13.132000 -1.334000 -2.505000
15.001000 -1.525000 -2.355000
12.362000 -1.297000 -2.570000
13.971000 -1.463000 -2.438000
15.923000 -1.667000 -2.227000
11.664000 -1.276000 -2.639000
13.101000 -1.424000 -2.503000
14.957000 -1.626000 -2.352000
12.357000 -1.386000 -2.574000
13.959000 -1.561000 -2.440000
15.939000 -1.780000 -2.234000
11.646000 -1.358000 -2.640000
13.093000 -1.517000 -2.506000
14.968000 -1.732000 -2.358000
12.327000 -1.471000 -2.572000
13.963000 -1.660000 -2.445000
15.932000 -1.891000 -2.237000
11.641000 -1.443000 -2.643000
13.074000 -1.609000 -2.507000
14.950000 -1.835000 -2.360000
12.306000 -1.558000 -2.572000
13.947000 -1.758000 -2.447000
15.945000 -2.003000 -2.244000
11.608000 -1.523000 -2.641000
13.074000 -1.702000 -2.511000
14.916000 -1.937000 -2.359000
12.276000 -1.643000 -2.571000
13.919000 -1.854000 -2.447000
15.964000 -2.119000 -2.251000
11.583000 -1.605000 -2.640000
13.041000 -1.792000 -2.510000
14.902000 -2.040000 -2.362000
12.288000 -1.734000 -2.578000
13.905000 -1.951000 -2.450000
15.941000 -2.228000 -2.253000
11.585000 -1.691000 -2.646000
13.004000 -1.881000 -2.508000
14.883000 -2.144000 -2.365000
12.274000 -1.822000 -2.581000
13.879000 -2.047000 -2.451000
15.927000 -2.338000 -2.257000
11.567000 -1.773000 -2.648000
12.996000 -1.973000 -2.512000
14.850000 -2.245000 -2.365000
12.256000 -1.909000 -2.583000
13.869000 -2.145000 -2.455000
15.891000 -2.446000 -2.257000
11.553000 -1.856000 -2.650000
12.972000 -2.064000 -2.514000
14.807000 -2.344000 -2.364000
12.235000 -1.995000 -2.585000
13.766000 -2.228000 -2.442000
15.850000 -2.552000 -2.257000
11.532000 -1.939000 -2.652000
12.954000 -2.156000 -2.516000
14.809000 -2.451000 -2.370000
12.224000 -2.083000 -2.588000
13.795000 -2.332000 -2.454000
15.848000 -2.664000 -2.263000
11.505000 -2.020000 -2.652000
12.902000 -2.241000 -2.512000
14.771000 -2.550000 -2.370000
12.199000 -2.169000 -2.589000
13.776000 -2.430000 -2.456000
15.782000 -2.766000 -2.260000
11.478000 -2.101000 -2.652000
12.902000 -2.335000 -2.518000
14.745000 -2.652000 -2.372000
12.182000 -2.256000 -2.592000
13.755000 -2.526000 -2.459000
15.775000 -2.878000 -2.265000
11.459000 -2.183000 -2.654000
12.827000 -2.416000 -2.510000
14.673000 -2.746000 -2.367000
12.154000 -2.341000 -2.593000
13.721000 -2.619000 -2.460000
15.682000 -2.973000 -2.258000
11.442000 -2.266000 -2.658000
12.856000 -2.516000 -2.523000
14.648000 -2.847000 -2.370000
12.133000 -2.428000 -2.595000
13.679000 -2.712000 -2.459000
15.652000 -3.081000 -2.261000
11.427000 -2.349000 -2.661000
12.819000 -2.603000 -2.522000
14.550000 -2.933000 -2.361000
12.093000 -2.510000 -2.594000
13.642000 -2.805000 -2.459000
15.659000 -3.195000 -2.268000
11.402000 -2.431000 -2.663000
12.802000 -2.696000 -2.526000
14.567000 -3.044000 -2.371000
12.070000 -2.596000 -2.597000
13.599000 -2.896000 -2.459000
15.574000 -3.290000 -2.263000
11.378000 -2.512000 -2.665000
12.741000 -2.778000 -2.522000
14.487000 -3.133000 -2.365000
12.047000 -2.682000 -2.599000
13.524000 -2.981000 -2.453000
15.578000 -3.406000 -2.271000
11.353000 -2.592000 -2.666000
12.734000 -2.871000 -2.528000
14.462000 -3.234000 -2.368000
12.023000 -2.767000 -2.602000
13.497000 -3.075000 -2.455000
15.578000 -3.519000 -2.278000
11.332000 -2.675000 -2.670000
12.721000 -2.965000 -2.533000
14.464000 -3.342000 -2.376000
11.989000 -2.850000 -2.602000
13.476000 -3.170000 -2.459000
15.495000 -3.614000 -2.274000
11.296000 -2.754000 -2.669000
12.630000 -3.039000 -2.522000
14.408000 -3.435000 -2.374000
11.932000 -2.929000 -2.598000
13.443000 -3.264000 -2.461000
15.460000 -3.720000 -2.276000
11.270000 -2.834000 -2.672000
12.618000 -3.131000 -2.528000
14.376000 -3.534000 -2.377000
11.903000 -3.012000 -2.600000
13.426000 -3.361000 -2.466000
15.426000 -3.826000 -2.279000
11.225000 -2.911000 -2.669000
12.582000 -3.219000 -2.529000
14.361000 -3.639000 -2.382000
11.853000 -3.091000 -2.597000
13.397000 -3.454000 -2.468000
15.389000 -3.931000 -2.282000
11.197000 -2.991000 -2.671000
12.582000 -3.314000 -2.537000
14.308000 -3.733000 -2.382000
11.834000 -3.178000 -2.602000
13.372000 -3.551000 -2.472000
15.370000 -4.042000 -2.287000
11.181000 -3.074000 -2.676000
12.574000 -3.408000 -2.544000
14.280000 -3.832000 -2.385000
11.824000 -3.267000 -2.608000
13.345000 -3.645000 -2.476000
15.337000 -4.148000 -2.290000
11.141000 -3.152000 -2.676000
12.537000 -3.496000 -2.545000
14.252000 -3.934000 -2.388000
11.794000 -3.350000 -2.610000
13.284000 -3.729000 -2.473000
15.316000 -4.257000 -2.295000
11.120000 -3.233000 -2.680000
12.487000 -3.579000 -2.544000
14.194000 -4.026000 -2.388000
11.759000 -3.434000 -2.612000
13.295000 -3.836000 -2.484000
15.278000 -4.362000 -2.298000
11.092000 -3.313000 -2.683000
12.474000 -3.671000 -2.550000
14.194000 -4.134000 -2.396000
11.722000 -3.515000 -2.613000
13.245000 -3.924000 -2.483000
15.239000 -4.467000 -2.301000
11.058000 -3.393000 -2.684000
12.444000 -3.761000 -2.553000
14.157000 -4.232000 -2.398000
11.695000 -3.600000 -2.616000
13.205000 -4.014000 -2.484000
15.203000 -4.572000 -2.304000
11.012000 -3.467000 -2.682000
12.407000 -3.847000 -2.554000
14.120000 -4.331000 -2.401000
11.670000 -3.686000 -2.620000
13.166000 -4.106000 -2.486000
15.158000 -4.675000 -2.305000
10.996000 -3.551000 -2.688000
12.375000 -3.935000 -2.557000
14.080000 -4.428000 -2.403000
11.658000 -3.775000 -2.626000
13.156000 -4.206000 -2.493000
15.135000 -4.785000 -2.311000
10.958000 -3.629000 -2.689000
12.347000 -4.025000 -2.561000
14.053000 -4.529000 -2.407000
11.623000 -3.858000 -2.628000
13.132000 -4.302000 -2.498000
15.095000 -4.889000 -2.314000
10.928000 -3.708000 -2.691000
12.316000 -4.113000 -2.564000
14.005000 -4.624000 -2.408000
11.568000 -3.934000 -2.625000
13.092000 -4.394000 -2.500000
15.062000 -4.996000 -2.317000
10.865000 -3.776000 -2.685000
12.280000 -4.200000 -2.566000
13.982000 -4.726000 -2.414000
11.558000 -4.025000 -2.633000
13.076000 -4.492000 -2.506000
15.012000 -5.098000 -2.319000
10.872000 -3.870000 -2.698000
12.252000 -4.290000 -2.569000
13.956000 -4.829000 -2.418000
11.485000 -4.093000 -2.626000
13.021000 -4.578000 -2.505000
14.992000 -5.209000 -2.324000
10.841000 -3.948000 -2.700000
12.216000 -4.377000 -2.572000
13.916000 -4.926000 -2.421000
11.474000 -4.185000 -2.634000
12.995000 -4.674000 -2.509000
14.950000 -5.313000 -2.326000
10.804000 -4.026000 -2.701000
12.183000 -4.465000 -2.574000
13.891000 -5.028000 -2.425000
11.448000 -4.271000 -2.638000
12.962000 -4.768000 -2.513000
14.913000 -5.419000 -2.330000
10.770000 -4.105000 -2.703000
12.148000 -4.552000 -2.577000
13.858000 -5.129000 -2.429000
11.409000 -4.351000 -2.639000
12.919000 -4.857000 -2.514000
14.870000 -5.522000 -2.333000
10.743000 -4.186000 -2.707000
12.120000 -4.643000 -2.581000
13.810000 -5.223000 -2.430000
11.380000 -4.437000 -2.643000
12.895000 -4.955000 -2.519000
14.828000 -5.627000 -2.334000
10.706000 -4.263000 -2.708000
12.091000 -4.732000 -2.585000
13.777000 -5.323000 -2.433000
11.348000 -4.520000 -2.645000
12.853000 -5.046000 -2.520000
14.793000 -5.733000 -2.338000
10.672000 -4.342000 -2.711000
12.051000 -4.818000 -2.586000
13.768000 -5.433000 -2.441000
11.309000 -4.601000 -2.647000
12.840000 -5.147000 -2.528000
14.762000 -5.842000 -2.342000
10.649000 -4.425000 -2.715000
12.011000 -4.904000 -2.587000
13.718000 -5.527000 -2.442000
11.276000 -4.685000 -2.649000
12.796000 -5.237000 -2.528000
14.724000 -5.948000 -2.345000
10.615000 -4.503000 -2.717000
11.978000 -4.992000 -2.590000
13.693000 -5.631000 -2.446000
11.249000 -4.771000 -2.653000
12.758000 -5.330000 -2.531000
14.716000 -6.067000 -2.353000
10.565000 -4.576000 -2.715000
11.940000 -5.079000 -2.592000
13.660000 -5.732000 -2.449000
11.217000 -4.854000 -2.656000
12.750000 -5.434000 -2.539000
14.637000 -6.155000 -2.349000
10.544000 -4.661000 -2.721000
11.903000 -5.166000 -2.594000
13.655000 -5.845000 -2.458000
11.185000 -4.940000 -2.659000
12.695000 -5.520000 -2.537000
14.643000 -6.281000 -2.359000
10.517000 -4.742000 -2.725000
11.881000 -5.259000 -2.599000
13.603000 -5.938000 -2.458000
11.149000 -5.022000 -2.661000
12.687000 -5.626000 -2.546000
14.574000 -6.375000 -2.357000
10.492000 -4.826000 -2.729000
11.850000 -5.350000 -2.602000
13.594000 -6.051000 -2.465000
11.111000 -5.103000 -2.662000
12.639000 -5.714000 -2.546000
14.544000 -6.484000 -2.361000
10.455000 -4.904000 -2.731000
11.828000 -5.444000 -2.608000
13.525000 -6.137000 -2.462000
11.094000 -5.195000 -2.668000
12.614000 -5.813000 -2.550000
14.540000 -6.607000 -2.368000
10.428000 -4.986000 -2.734000
11.787000 -5.530000 -2.608000
13.518000 -6.250000 -2.470000
11.057000 -5.279000 -2.670000
12.576000 -5.906000 -2.552000
14.483000 -6.705000 -2.367000
10.389000 -5.064000 -2.735000
11.753000 -5.619000 -2.610000
13.475000 -6.349000 -2.471000
11.036000 -5.369000 -2.675000
12.550000 -6.005000 -2.556000
14.446000 -6.814000 -2.370000
10.360000 -5.146000 -2.738000
11.723000 -5.711000 -2.614000
13.420000 -6.440000 -2.469000
11.003000 -5.453000 -2.677000
12.510000 -6.098000 -2.557000
14.420000 -6.928000 -2.374000
10.328000 -5.226000 -2.741000
11.693000 -5.802000 -2.617000
13.399000 -6.548000 -2.475000
10.972000 -5.540000 -2.680000
12.476000 -6.194000 -2.560000
14.386000 -7.037000 -2.376000
10.308000 -5.314000 -2.746000
11.671000 -5.898000 -2.621000
13.356000 -6.647000 -2.475000
10.953000 -5.632000 -2.686000
12.457000 -6.297000 -2.565000
14.352000 -7.147000 -2.379000
10.269000 -5.392000 -2.747000
11.634000 -5.987000 -2.623000
13.336000 -6.757000 -2.480000
10.927000 -5.722000 -2.689000
12.422000 -6.393000 -2.566000
14.313000 -7.256000 -2.380000
10.242000 -5.475000 -2.750000
11.620000 -6.087000 -2.629000
13.304000 -6.861000 -2.483000
10.880000 -5.800000 -2.688000
12.395000 -6.493000 -2.570000
14.303000 -7.379000 -2.386000
10.212000 -5.558000 -2.752000
11.584000 -6.176000 -2.630000
13.268000 -6.963000 -2.483000
10.842000 -5.882000 -2.689000
12.360000 -6.589000 -2.571000
14.268000 -7.489000 -2.388000
10.180000 -5.641000 -2.755000
11.555000 -6.270000 -2.633000
13.238000 -7.069000 -2.486000
10.825000 -5.977000 -2.694000
12.329000 -6.688000 -2.573000
14.231000 -7.600000 -2.388000
10.153000 -5.725000 -2.758000
11.526000 -6.363000 -2.636000
13.192000 -7.166000 -2.485000
10.801000 -6.069000 -2.698000
12.304000 -6.789000 -2.576000
14.221000 -7.724000 -2.393000
10.136000 -5.816000 -2.763000
11.495000 -6.457000 -2.637000
13.177000 -7.281000 -2.490000
10.789000 -6.167000 -2.705000
12.269000 -6.887000 -2.578000
14.182000 -7.834000 -2.394000
10.098000 -5.895000 -2.763000
11.473000 -6.554000 -2.640000
13.155000 -7.392000 -2.493000
10.760000 -6.257000 -2.706000
12.254000 -6.995000 -2.582000
14.153000 -7.950000 -2.395000
10.070000 -5.980000 -2.765000
11.455000 -6.655000 -2.645000
13.121000 -7.497000 -2.494000
10.714000 -6.337000 -2.704000
12.223000 -7.095000 -2.583000
14.124000 -8.065000 -2.396000
10.047000 -6.068000 -2.769000
11.423000 -6.749000 -2.646000
13.099000 -7.610000 -2.496000
10.685000 -6.426000 -2.706000
12.190000 -7.194000 -2.584000
14.098000 -8.184000 -2.398000
10.008000 -6.148000 -2.768000
11.390000 -6.841000 -2.646000
13.088000 -7.728000 -2.500000
10.659000 -6.518000 -2.708000
12.175000 -7.304000 -2.588000
14.085000 -8.311000 -2.401000
9.973000 -6.228000 -2.768000
11.375000 -6.946000 -2.652000
13.070000 -7.844000 -2.504000
10.635000 -6.611000 -2.710000
12.168000 -7.419000 -2.594000
14.054000 -8.426000 -2.401000
9.959000 -6.324000 -2.773000
11.345000 -7.041000 -2.652000
13.021000 -7.941000 -2.500000
10.610000 -6.704000 -2.713000
12.130000 -7.516000 -2.593000
14.049000 -8.558000 -2.406000
9.923000 -6.404000 -2.772000
11.323000 -7.142000 -2.654000
13.005000 -8.059000 -2.503000
10.583000 -6.796000 -2.714000
12.100000 -7.618000 -2.592000
14.022000 -8.679000 -2.405000
9.898000 -6.493000 -2.775000
11.299000 -7.241000 -2.656000
12.992000 -8.179000 -2.506000
10.562000 -6.892000 -2.716000
12.090000 -7.733000 -2.596000
13.990000 -8.795000 -2.404000
9.879000 -6.587000 -2.778000
11.276000 -7.343000 -2.657000
12.980000 -8.301000 -2.508000
10.538000 -6.987000 -2.718000
12.066000 -7.840000 -2.598000
13.985000 -8.930000 -2.407000
9.871000 -6.687000 -2.784000
11.258000 -7.446000 -2.659000
12.964000 -8.420000 -2.509000
10.536000 -7.097000 -2.725000
12.038000 -7.945000 -2.597000
13.983000 -9.068000 -2.409000
9.843000 -6.775000 -2.785000
11.231000 -7.546000 -2.660000
12.933000 -8.530000 -2.508000
10.497000 -7.182000 -2.722000
12.030000 -8.063000 -2.600000
13.984000 -9.207000 -2.412000
9.809000 -6.859000 -2.783000
11.217000 -7.654000 -2.662000
12.935000 -8.664000 -2.512000
10.479000 -7.282000 -2.724000
12.011000 -8.175000 -2.601000
13.969000 -9.337000 -2.412000
9.790000 -6.952000 -2.785000
11.204000 -7.763000 -2.664000
12.916000 -8.782000 -2.512000
10.459000 -7.382000 -2.725000
11.996000 -8.290000 -2.602000
13.952000 -9.469000 -2.411000
9.764000 -7.043000 -2.785000
11.184000 -7.868000 -2.665000
12.916000 -8.914000 -2.514000
10.437000 -7.479000 -2.725000
11.982000 -8.405000 -2.603000
13.955000 -9.611000 -2.413000
9.746000 -7.139000 -2.787000
11.165000 -7.975000 -2.665000
12.910000 -9.045000 -2.516000
10.418000 -7.580000 -2.727000
11.983000 -8.532000 -2.607000
13.975000 -9.768000 -2.417000
9.730000 -7.236000 -2.789000
11.148000 -8.082000 -2.665000
12.898000 -9.171000 -2.515000
10.405000 -7.685000 -2.728000
11.971000 -8.652000 -2.607000
13.971000 -9.910000 -2.417000
9.715000 -7.335000 -2.791000
11.137000 -8.195000 -2.667000
12.891000 -9.300000 -2.515000
10.389000 -7.789000 -2.729000
11.963000 -8.773000 -2.607000
13.976000 -10.058000 -2.417000
9.685000 -7.423000 -2.788000
11.129000 -8.310000 -2.667000
12.891000 -9.438000 -2.516000
10.373000 -7.892000 -2.729000
11.958000 -8.899000 -2.609000
13.983000 -10.209000 -2.418000
9.679000 -7.529000 -2.791000
11.134000 -8.435000 -2.671000
12.893000 -9.575000 -2.516000
10.358000 -7.997000 -2.729000
11.948000 -9.021000 -2.607000
13.978000 -10.353000 -2.415000
9.663000 -7.628000 -2.792000
11.120000 -8.547000 -2.670000
12.893000 -9.712000 -2.516000
10.356000 -8.113000 -2.732000
11.953000 -9.153000 -2.609000
13.988000 -10.507000 -2.414000
9.653000 -7.733000 -2.793000
11.107000 -8.661000 -2.669000
12.904000 -9.860000 -2.517000
10.350000 -8.226000 -2.734000
11.950000 -9.281000 -2.609000
13.995000 -10.660000 -2.413000
9.640000 -7.834000 -2.793000
11.111000 -8.788000 -2.671000
12.907000 -10.001000 -2.516000
10.335000 -8.332000 -2.731000
11.964000 -9.425000 -2.612000
14.033000 -10.840000 -2.415000
9.641000 -7.948000 -2.798000
11.104000 -8.906000 -2.670000
12.931000 -10.158000 -2.518000
10.343000 -8.456000 -2.735000
11.943000 -9.540000 -2.606000
14.052000 -11.004000 -2.414000
9.621000 -8.046000 -2.794000
11.121000 -9.046000 -2.674000
12.927000 -10.297000 -2.514000
10.337000 -8.570000 -2.735000
11.965000 -9.689000 -2.609000
14.095000 -11.189000 -2.416000
9.624000 -8.162000 -2.797000
11.115000 -9.166000 -2.672000
12.945000 -10.453000 -2.514000
10.338000 -8.691000 -2.735000
11.970000 -9.827000 -2.607000
14.112000 -11.356000 -2.413000
9.613000 -8.266000 -2.796000
11.110000 -9.287000 -2.669000
12.962000 -10.607000 -2.512000
10.329000 -8.803000 -2.733000
11.985000 -9.973000 -2.607000
14.156000 -11.544000 -2.413000
9.613000 -8.382000 -2.797000
11.117000 -9.419000 -2.669000
13.002000 -10.784000 -2.514000
10.342000 -8.934000 -2.735000
12.005000 -10.123000 -2.608000
14.210000 -11.741000 -2.414000
9.615000 -8.497000 -2.797000
11.133000 -9.559000 -2.670000
13.015000 -10.937000 -2.510000
10.340000 -9.053000 -2.733000
12.007000 -10.260000 -2.603000
14.229000 -11.913000 -2.408000
9.612000 -8.609000 -2.796000
11.145000 -9.696000 -2.669000
13.053000 -11.113000 -2.510000
10.350000 -9.182000 -2.733000
12.039000 -10.422000 -2.604000
14.270000 -12.102000 -2.405000
9.628000 -8.740000 -2.800000
11.178000 -9.854000 -2.672000
13.087000 -11.287000 -2.508000
10.360000 -9.312000 -2.732000
12.061000 -10.576000 -2.602000
14.316000 -12.296000 -2.402000
9.632000 -8.858000 -2.799000
11.178000 -9.980000 -2.667000
13.128000 -11.467000 -2.507000
10.386000 -9.458000 -2.736000
12.086000 -10.734000 -2.600000
14.361000 -12.493000 -2.397000
9.638000 -8.979000 -2.797000
11.212000 -10.137000 -2.668000
13.165000 -11.644000 -2.503000
10.392000 -9.583000 -2.732000
12.133000 -10.912000 -2.601000
14.405000 -12.688000 -2.391000
9.655000 -9.110000 -2.799000
11.245000 -10.296000 -2.669000
13.208000 -11.828000 -2.500000
10.416000 -9.727000 -2.732000
12.149000 -11.061000 -2.595000
14.481000 -12.912000 -2.389000
9.669000 -9.238000 -2.798000
11.267000 -10.444000 -2.666000
13.255000 -12.016000 -2.496000
10.443000 -9.874000 -2.733000
12.194000 -11.239000 -2.594000
14.539000 -13.121000 -2.381000
9.689000 -9.373000 -2.798000
11.300000 -10.601000 -2.664000
13.317000 -12.217000 -2.494000
10.477000 -10.026000 -2.734000
12.249000 -11.426000 -2.593000
14.606000 -13.341000 -2.376000
9.701000 -9.498000 -2.795000
11.336000 -10.764000 -2.662000
13.359000 -12.402000 -2.485000
10.496000 -10.165000 -2.729000
12.295000 -11.604000 -2.590000
14.695000 -13.580000 -2.372000
9.724000 -9.635000 -2.794000
11.379000 -10.931000 -2.660000
13.417000 -12.602000 -2.481000
10.528000 -10.316000 -2.728000
12.343000 -11.786000 -2.586000
14.768000 -13.806000 -2.362000
9.756000 -9.780000 -2.794000
11.410000 -11.087000 -2.655000
13.487000 -12.813000 -2.476000
10.576000 -10.482000 -2.729000
12.378000 -11.954000 -2.578000
14.851000 -14.042000 -2.355000
9.794000 -9.931000 -2.796000
11.456000 -11.259000 -2.651000
13.565000 -13.033000 -2.470000
10.608000 -10.632000 -2.724000
12.446000 -12.154000 -2.575000
14.957000 -14.299000 -2.349000
9.828000 -10.076000 -2.794000
11.511000 -11.437000 -2.648000
13.645000 -13.255000 -2.465000
10.659000 -10.801000 -2.724000
12.516000 -12.357000 -2.571000
15.060000 -14.558000 -2.339000
9.851000 -10.212000 -2.788000
11.562000 -11.612000 -2.644000
13.737000 -13.487000 -2.459000
10.696000 -10.955000 -2.719000
12.585000 -12.557000 -2.565000
15.166000 -14.817000 -2.330000
9.914000 -10.386000 -2.793000
11.633000 -11.807000 -2.641000
13.818000 -13.710000 -2.449000
10.732000 -11.107000 -2.711000
12.670000 -12.773000 -2.561000
15.297000 -15.101000 -2.322000
9.948000 -10.529000 -2.787000
11.680000 -11.977000 -2.633000
13.913000 -13.948000 -2.441000
10.784000 -11.275000 -2.707000
12.734000 -12.968000 -2.550000
15.439000 -15.398000 -2.313000
9.995000 -10.685000 -2.783000
11.747000 -12.164000 -2.627000
14.025000 -14.200000 -2.434000
10.843000 -11.448000 -2.702000
12.836000 -13.202000 -2.547000
15.555000 -15.670000 -2.299000
10.041000 -10.839000 -2.779000
11.828000 -12.366000 -2.621000
14.141000 -14.457000 -2.424000
10.914000 -11.632000 -2.698000
12.916000 -13.411000 -2.537000
15.695000 -15.963000 -2.286000
10.093000 -10.996000 -2.774000
11.904000 -12.563000 -2.615000
14.268000 -14.725000 -2.416000
10.984000 -11.816000 -2.694000
13.009000 -13.633000 -2.526000
15.846000 -16.268000 -2.271000
10.155000 -11.163000 -2.769000
11.979000 -12.755000 -2.606000
14.393000 -14.989000 -2.405000
11.055000 -11.996000 -2.688000
13.121000 -13.873000 -2.519000
15.996000 -16.572001 -2.256000
10.211000 -11.320000 -2.763000
12.071000 -12.965000 -2.597000
14.540000 -15.276000 -2.394000
11.134000 -12.184000 -2.680000
13.241000 -14.121000 -2.511000
16.153999 -16.882000 -2.239000
10.282000 -11.492000 -2.758000
12.161000 -13.170000 -2.588000
14.702000 -15.578000 -2.385000
11.208000 -12.364000 -2.671000
13.358000 -14.363000 -2.499000
16.334999 -17.216999 -2.220000
10.354000 -11.663000 -2.750000
12.264000 -13.386000 -2.579000
14.842000 -15.853000 -2.370000
11.283000 -12.543000 -2.661000
13.483000 -14.612000 -2.488000
16.548000 -17.583000 -2.206000
10.445000 -11.851000 -2.747000
12.386000 -13.622000 -2.570000
15.008000 -16.155001 -2.354000
11.394000 -12.757000 -2.655000
13.628000 -14.878000 -2.478000
16.768999 -17.955000 -2.189000
10.520000 -12.019000 -2.738000
12.501000 -13.847000 -2.561000
15.175000 -16.457001 -2.339000
11.497000 -12.961000 -2.647000
13.784000 -15.155000 -2.465000
16.983000 -18.319000 -2.166000
10.618000 -12.209000 -2.732000
12.640000 -14.094000 -2.552000
15.354000 -16.767000 -2.322000
11.605000 -13.167000 -2.638000
13.948000 -15.439000 -2.455000
17.212000 -18.698000 -2.145000
10.696000 -12.371000 -2.719000
12.775000 -14.333000 -2.540000
15.555000 -17.099001 -2.303000
11.716000 -13.371000 -2.625000
14.113000 -15.719000 -2.441000
17.469000 -19.103001 -2.124000
10.802000 -12.562000 -2.712000
12.921000 -14.582000 -2.529000
15.728000 -17.396000 -2.281000
11.839000 -13.585000 -2.615000
14.276000 -15.992000 -2.422000
17.747999 -19.528000 -2.099000
10.923000 -12.766000 -2.704000
13.056000 -14.813000 -2.513000
15.990000 -17.788000 -2.267000
11.956000 -13.788000 -2.602000
14.481000 -16.309000 -2.410000
18.052999 -19.979000 -2.076000
11.024000 -12.941000 -2.691000
13.220000 -15.072000 -2.498000
16.202999 -18.121000 -2.241000
12.111000 -14.029000 -2.592000
14.671000 -16.605000 -2.392000
18.353001 -20.419001 -2.050000
11.160000 -13.153000 -2.685000
13.395000 -15.339000 -2.486000
16.457001 -18.493999 -2.220000
12.247000 -14.242000 -2.577000
14.860000 -16.892000 -2.369000
18.641001 -20.843000 -2.015000
11.296000 -13.357000 -2.673000
13.574000 -15.604000 -2.470000
16.725000 -18.878000 -2.198000
12.394000 -14.463000 -2.563000
15.090000 -17.222000 -2.353000
18.986000 -21.323000 -1.985000
11.426000 -13.550000 -2.660000
13.776000 -15.891000 -2.455000
16.997000 -19.261999 -2.171000
12.552000 -14.690000 -2.546000
15.305000 -17.527000 -2.330000
19.325001 -21.791000 -1.952000
11.558000 -13.737000 -2.646000
13.988000 -16.183001 -2.441000
17.320999 -19.695999 -2.148000
12.738000 -14.944000 -2.535000
15.540000 -17.848000 -2.305000
19.691000 -22.282000 -1.914000
11.717000 -13.950000 -2.633000
14.176000 -16.438000 -2.419000
17.605000 -20.077999 -2.119000
12.924000 -15.190000 -2.521000
15.768000 -18.156000 -2.280000
20.108999 -22.826000 -1.879000
11.875000 -14.154000 -2.619000
14.409000 -16.739000 -2.400000
17.992001 -20.569000 -2.094000
13.099000 -15.415000 -2.500000
16.076000 -18.546000 -2.261000
20.521999 -23.353001 -1.840000
12.026000 -14.344000 -2.602000
14.618000 -17.004999 -2.376000
18.312000 -20.975000 -2.060000
13.309000 -15.674000 -2.485000
16.368999 -18.910999 -2.235000
21.020000 -23.969000 -1.801000
12.206000 -14.559000 -2.586000
14.852000 -17.291000 -2.354000
18.652000 -21.396999 -2.026000
13.515000 -15.921000 -2.467000
16.681999 -19.289000 -2.211000
21.471001 -24.521999 -1.755000
12.399000 -14.782000 -2.573000
15.129000 -17.617001 -2.333000
19.046000 -21.868999 -1.990000
13.761000 -16.205999 -2.451000
16.997999 -19.663000 -2.184000
21.945999 -25.091000 -1.708000
12.589000 -14.993000 -2.557000
15.379000 -17.903999 -2.308000
19.444000 -22.334999 -1.953000
13.967000 -16.434000 -2.427000
17.367001 -20.087000 -2.158000
22.502001 -25.742001 -1.658000
12.808000 -15.230000 -2.542000
15.628000 -18.180000 -2.280000
19.865999 -22.819000 -1.916000
14.220000 -16.708000 -2.410000
17.695999 -20.452999 -2.125000
23.084000 -26.409000 -1.608000
13.017000 -15.445000 -2.524000
15.943000 -18.521999 -2.256000
20.319000 -23.326000 -1.874000
14.454000 -16.950001 -2.384000
18.073000 -20.865000 -2.096000
23.767000 -27.177999 -1.561000
13.204000 -15.626000 -2.501000
16.261000 -18.858000 -2.232000
20.792000 -23.843000 -1.833000
14.724000 -17.226000 -2.364000
18.424999 -21.236000 -2.058000
24.375999 -27.847000 -1.500000
13.453000 -15.870000 -2.484000
16.556999 -19.157000 -2.202000
21.295000 -24.381001 -1.791000
14.979000 -17.473000 -2.338000
18.829000 -21.655001 -2.024000
25.187000 -28.733000 -1.447000
13.685000 -16.084000 -2.464000
16.940001 -19.544001 -2.178000
21.754999 -24.854000 -1.737000
15.260000 -17.740999 -2.314000
19.229000 -22.056000 -1.987000
26.018000 -29.622999 -1.391000
13.945000 -16.323999 -2.447000
17.270000 -19.861000 -2.147000
22.358000 -25.476999 -1.694000
15.522000 -17.974001 -2.285000
19.625000 -22.438999 -1.944000
26.723000 -30.351000 -1.318000
14.175000 -16.514999 -2.422000
17.634001 -20.202999 -2.118000
22.900000 -26.017000 -1.643000
15.802000 -18.219999 -2.256000
20.094000 -22.893000 -1.906000
27.681999 -31.349001 -1.254000
14.435000 -16.733999 -2.400000
18.000999 -20.535999 -2.083000
23.465000 -26.563000 -1.585000
16.181000 -18.566999 -2.238000
20.568001 -23.337999 -1.867000
28.132999 -31.753000 -1.164000
14.706000 -16.954000 -2.379000
18.379999 -20.870001 -2.049000
24.200001 -27.287001 -1.537000
16.469999 -18.799999 -2.207000
21.054001 -23.781000 -1.822000
29.138000 -32.759998 -1.087000
14.962000 -17.146999 -2.352000
18.767000 -21.201000 -2.015000
24.792000 -27.830999 -1.477000
16.783001 -19.048000 -2.176000
21.521999 -24.188000 -1.775000
30.357000 -33.985001 -1.014000
15.244000 -17.360001 -2.328000
19.136000 -21.497999 -1.973000
25.728001 -28.740999 -1.428000
17.129999 -19.322001 -2.147000
21.997999 -24.591000 -1.727000
31.267000 -34.838001 -0.924000
15.542000 -17.580999 -2.306000
19.594000 -21.882999 -1.940000
26.322001 -29.250000 -1.359000
17.487000 -19.599001 -2.118000
22.605000 -25.122999 -1.682000
31.208000 -34.591000 -0.802000
15.794000 -17.738001 -2.274000
19.983999 -22.177000 -1.899000
27.216999 -30.073000 -1.301000
17.871000 -19.893000 -2.091000
23.142000 -25.562000 -1.632000
28.891001 -31.848000 -0.634000
16.125000 -17.976999 -2.252000
20.403999 -22.490000 -1.855000
28.041000 -30.791000 -1.233000
18.219000 -20.132000 -2.056000
23.653000 -25.955000 -1.579000
28.945999 -31.718000 -0.529000
16.430000 -18.174000 -2.226000
20.893000 -22.868000 -1.818000
28.670000 -31.278999 -1.154000
18.587999 -20.386000 -2.023000
24.299999 -26.478001 -1.527000
29.011999 -31.586000 -0.424000
16.726000 -18.350000 -2.196000
21.305000 -23.146000 -1.774000
29.004999 -31.431999 -1.062000
18.957001 -20.628000 -1.988000
24.974001 -27.014999 -1.477000
29.037001 -31.402000 -0.322000
17.059999 -18.558001 -2.171000
21.841000 -23.542999 -1.733000
29.089001 -31.292999 -0.959000
19.351999 -20.882000 -1.954000
25.548000 -27.427000 -1.419000
29.115999 -31.267000 -0.223000
17.361000 -18.722000 -2.140000
22.304001 -23.849001 -1.688000
29.225000 -31.202999 -0.862000
19.708000 -21.087000 -1.916000
26.399000 -28.113001 -1.370000
0.000000 0.000000 0.000000
17.736000 -18.954000 -2.117000
22.787001 -24.164000 -1.642000
0.000000 0.000000 0.000000
20.103001 -21.320999 -1.880000
27.105000 -28.629000 -1.313000
0.000000 0.000000 0.000000
18.018999 -19.077999 -2.082000
23.229000 -24.417000 -1.591000
29.445999 -30.937000 -0.669000
20.465000 -21.506001 -1.839000
27.514999 -28.813999 -1.240000
29.851999 -31.316999 0.067000
18.337000 -19.230000 -2.051000
23.788000 -24.781000 -1.548000
0.000000 0.000000 0.000000
20.910000 -21.770000 -1.805000
28.627001 -29.712000 -1.194000
29.545000 -30.732000 0.159000
18.731001 -19.450001 -2.027000
24.281000 -25.063000 -1.499000
0.000000 0.000000 0.000000
21.297001 -21.962000 -1.765000
29.016001 -29.844000 -1.117000
30.820999 -31.784000 0.260000
19.040001 -19.575001 -1.993000
24.796000 -25.350000 -1.449000
0.000000 0.000000 0.000000
21.694000 -22.149000 -1.725000
29.920000 -30.486000 -1.058000
0.000000 0.000000 0.000000
19.413000 -19.756001 -1.966000
25.403999 -25.723000 -1.404000
0.000000 0.000000 0.000000
22.107000 -22.346001 -1.686000
0.000000 0.000000 0.000000
0.000000 0.000000 0.000000
19.719999 -19.856001 -1.930000
25.945000 -26.011000 -1.354000
0.000000 0.000000 0.000000
22.600000 -22.612000 -1.652000
0.000000 0.000000 0.000000
30.997000 -31.089001 0.526000
20.077999 -20.004000 -1.901000
26.556999 -26.351000 -1.306000
0.000000 0.000000 0.000000
22.972000 -22.740999 -1.608000
31.136999 -30.801001 -0.826000
0.000000 0.000000 0.000000
20.462000 -20.167000 -1.873000
27.122000 -26.634001 -1.255000
31.759001 -31.263000 -0.060000
23.427999 -22.947001 -1.570000
31.586000 -30.920000 -0.749000
0.000000 0.000000 0.000000
20.813999 -20.288000 -1.840000
27.915001 -27.127001 -1.213000
31.752001 -30.938000 0.022000
23.855000 -23.113001 -1.531000
31.233999 -30.256001 -0.658000
37.563999 -36.563000 0.929000
21.177999 -20.413000 -1.811000
28.468000 -27.363001 -1.159000
32.008999 -30.861000 0.104000
24.230000 -23.216999 -1.485000
30.430000 -29.165001 -0.563000
37.660000 -36.277000 1.021000
21.511999 -20.502001 -1.778000
29.165001 -27.728001 -1.111000
33.301998 -31.767000 0.189000
24.726000 -23.427999 -1.450000
0.000000 0.000000 0.000000
31.954000 -30.451000 0.941000
21.870001 -20.603001 -1.745000
29.608999 -27.840000 -1.054000
30.455999 -28.739000 0.244000
25.150999 -23.562000 -1.410000
34.046001 -31.917999 -0.462000
32.053001 -30.219000 1.015000
22.214001 -20.684999 -1.715000
30.164000 -28.039000 -0.999000
37.977001 -35.437000 0.390000
25.695999 -23.794001 -1.373000
37.588001 -34.846001 -0.423000
32.117001 -29.948000 1.084000
22.539000 -20.742001 -1.682000
30.791000 -28.297001 -0.947000
33.900002 -31.283001 0.422000
26.094000 -23.881001 -1.333000
38.312000 -35.108002 -0.345000
38.048000 -35.078999 1.363000
22.926001 -20.846001 -1.652000
31.329000 -28.459999 -0.893000
33.995998 -31.016001 0.493000
26.576000 -24.038000 -1.296000
38.459000 -34.841000 -0.264000
38.166000 -34.790001 1.441000
23.223000 -20.862000 -1.619000
32.087002 -28.802999 -0.844000
34.083000 -30.736000 0.565000
27.059999 -24.181999 -1.256000
38.542000 -34.509998 -0.186000
38.291000 -34.506001 1.518000
23.569000 -20.917000 -1.588000
32.414001 -28.753000 -0.784000
32.535999 -28.997999 0.600000
27.544001 -24.318001 -1.221000
34.244999 -30.295000 -0.097000
38.431999 -34.228001 1.595000
23.930000 -20.976999 -1.557000
32.901001 -28.839001 -0.730000
34.240002 -30.158001 0.693000
28.047001 -24.462999 -1.185000
32.838001 -28.705000 -0.031000
38.536999 -33.915001 1.662000
24.316000 -21.052000 -1.532000
33.639000 -29.124001 -0.680000
34.397999 -29.934000 0.760000
28.535999 -24.582001 -1.146000
38.808998 -33.515999 0.032000
38.651001 -33.611000 1.729000
24.563999 -21.002001 -1.497000
34.700001 -29.676001 -0.638000
38.779999 -33.338001 0.919000
28.747000 -24.457001 -1.101000
38.923000 -33.200001 0.101000
38.743000 -33.283001 1.797000
24.915001 -21.032000 -1.467000
35.007000 -29.570000 -0.581000
38.903000 -33.037998 0.983000
29.237000 -24.563000 -1.066000
39.030998 -32.882999 0.165000
38.887001 -32.997002 1.858000
25.215000 -21.016001 -1.438000
35.361000 -29.490999 -0.526000
39.014000 -32.720001 1.048000
29.775000 -24.697001 -1.031000
39.141998 -32.567001 0.228000
38.969002 -32.660000 1.916000
25.615999 -21.079000 -1.414000
35.945000 -29.603001 -0.476000
39.131001 -32.409000 1.106000
30.320999 -24.830000 -1.000000
39.287998 -32.273998 0.291000
39.075001 -32.338001 1.976000
25.895000 -21.032000 -1.382000
36.533001 -29.707001 -0.427000
39.228001 -32.082001 1.162000
30.728001 -24.841999 -0.964000
39.366001 -31.927999 0.346000
39.203999 -32.034000 2.029000
26.257999 -21.049999 -1.359000
37.073002 -29.757000 -0.376000
39.348000 -31.768000 1.220000
31.020000 -24.752001 -0.922000
39.521000 -31.643999 0.401000
39.325001 -31.726000 2.082000
26.441999 -20.921000 -1.326000
38.198002 -30.263000 -0.336000
39.563000 -31.531000 1.273000
31.353001 -24.690001 -0.888000
39.603001 -31.298000 0.456000
39.439999 -31.408001 2.134000
26.827000 -20.945000 -1.302000
39.140999 -30.605000 -0.288000
39.608002 -31.160000 1.320000
31.656000 -24.603001 -0.852000
39.733002 -30.990000 0.504000
39.558998 -31.091999 2.180000
27.195999 -20.950001 -1.282000
38.709999 -29.872000 -0.236000
39.730999 -30.847000 1.372000
31.955999 -24.506001 -0.814000
39.874001 -30.688999 0.555000
39.669998 -30.773001 2.225000
27.448000 -20.863001 -1.255000
39.140999 -29.802999 -0.193000
39.841999 -30.525000 1.415000
32.382999 -24.500999 -0.786000
39.964001 -30.354000 0.601000
39.805000 -30.469000 2.273000
27.705999 -20.774000 -1.228000
39.785000 -29.886999 -0.147000
39.948002 -30.201000 1.458000
32.687000 -24.400000 -0.753000
40.091999 -30.042999 0.643000
39.932999 -30.159000 2.312000
27.923000 -20.655001 -1.202000
40.179001 -29.780001 -0.104000
40.084000 -29.895000 1.502000
33.085999 -24.361000 -0.722000
40.196999 -29.714001 0.687000
40.028999 -29.827000 2.350000
28.201000 -20.575001 -1.181000
40.388000 -29.528000 -0.065000
40.202999 -29.580000 1.540000
33.411999 -24.267000 -0.692000
40.334999 -29.413000 0.727000
40.172001 -29.525999 2.392000
28.426001 -20.452999 -1.156000
40.499001 -29.202999 -0.023000
40.319000 -29.263000 1.577000
33.644001 -24.101000 -0.663000
40.432999 -29.082001 0.762000
40.287998 -29.205999 2.425000
28.599001 -20.294001 -1.132000
40.664001 -28.920000 0.014000
40.428001 -28.937000 1.614000
34.063000 -24.062000 -0.636000
40.585999 -28.787001 0.801000
40.393002 -28.882000 2.458000
28.825001 -20.170000 -1.111000
40.772999 -28.596001 0.047000
40.551998 -28.622999 1.646000
34.296001 -23.889999 -0.608000
40.695000 -28.465000 0.835000
40.527000 -28.573999 2.493000
29.107000 -20.080000 -1.092000
40.662998 -28.118999 0.084000
40.661999 -28.304001 1.678000
34.888000 -23.961000 -0.590000
40.997002 -28.275000 0.869000
40.819000 -28.375999 2.531000
29.365000 -19.973000 -1.074000
40.387001 -27.538000 0.114000
41.960999 -28.797001 1.759000
34.828999 -23.582001 -0.557000
40.396000 -27.466000 0.886000
42.228001 -28.944000 2.640000
29.487000 -19.770000 -1.053000
41.273998 -27.743000 0.145000
40.990002 -27.733999 1.742000
35.278999 -23.548000 -0.537000
40.421001 -27.096001 0.912000
44.384998 -29.989000 2.798000
29.673000 -19.608000 -1.033000
41.605000 -27.565001 0.177000
41.185001 -27.468000 1.769000
35.223999 -23.174000 -0.511000
42.176998 -27.867001 0.974000
44.534000 -29.660999 2.826000
29.826000 -19.427999 -1.015000
40.699001 -26.580000 0.199000
44.729000 -29.400000 1.946000
35.389000 -22.945000 -0.487000
40.910000 -26.639000 0.969000
44.675999 -29.326000 2.850000
30.148001 -19.351999 -1.004000
41.139000 -26.476999 0.224000
41.396000 -26.818001 1.819000
35.775002 -22.860001 -0.469000
41.891998 -26.882999 1.014000
44.806999 -28.982000 2.875000
30.180000 -19.087999 -0.982000
41.134998 -26.086000 0.249000
44.987999 -28.719999 1.993000
35.978001 -22.652000 -0.451000
41.671001 -26.351000 1.026000
44.959999 -28.657000 2.899000
30.413000 -18.952999 -0.970000
41.477001 -25.919001 0.272000
45.111000 -28.372999 2.017000
36.200001 -22.455000 -0.431000
41.866001 -26.080999 1.051000
45.082001 -28.311001 2.917000
30.601999 -18.788000 -0.958000
43.235001 -26.615999 0.302000
44.327000 -27.468000 1.996000
36.379002 -22.232000 -0.414000
43.859001 -26.919001 1.118000
45.209999 -27.966000 2.938000
30.759001 -18.601000 -0.943000
43.299999 -26.257000 0.324000
43.963001 -26.836000 1.991000
36.376999 -21.896999 -0.398000
45.504002 -27.511999 1.176000
45.328999 -27.621000 2.954000
30.864000 -18.385000 -0.930000
43.293999 -25.861000 0.342000
44.009998 -26.458000 2.006000
36.605000 -21.701000 -0.381000
44.144001 -26.284000 1.155000
45.458000 -27.280001 2.968000
30.951000 -18.157000 -0.918000
43.451000 -25.563000 0.359000
44.157001 -26.145000 2.023000
36.974998 -21.587999 -0.370000
44.226002 -25.934000 1.170000
45.608002 -26.951000 2.986000
31.032000 -17.924000 -0.904000
43.791000 -25.365000 0.376000
44.290001 -25.822001 2.035000
36.848999 -21.184000 -0.356000
44.377998 -25.625000 1.185000
45.741001 -26.615999 2.999000
31.091000 -17.684000 -0.891000
43.561001 -24.846001 0.388000
44.450001 -25.514000 2.052000
37.088001 -20.990000 -0.343000
44.473000 -25.278999 1.197000
44.374001 -25.419001 2.911000
31.145000 -17.438999 -0.882000
43.618999 -24.493999 0.400000
44.523998 -25.160999 2.061000
37.216000 -20.737000 -0.331000
44.701000 -25.013000 1.212000
44.514999 -25.099001 2.924000
31.260000 -17.228001 -0.872000
44.916000 -24.822001 0.423000
44.654999 -24.837999 2.070000
37.296001 -20.454000 -0.323000
44.810001 -24.681999 1.223000
44.634998 -24.771999 2.933000
22.107000 -11.992000 -0.609000
44.041000 -23.955999 0.425000
44.801998 -24.524000 2.083000
37.293999 -20.128000 -0.311000
44.365002 -24.045000 1.217000
44.771999 -24.452000 2.940000
23.297001 -12.437000 -0.634000
44.133999 -23.625000 0.434000
44.977001 -24.228001 2.093000
23.768000 -12.623000 -0.192000
44.028999 -23.482000 1.213000
44.890999 -24.121000 2.949000
25.107000 -13.186000 -0.675000
44.208000 -23.281000 0.442000
45.109001 -23.907000 2.099000
37.556999 -19.625999 -0.296000
44.187000 -23.188000 1.221000
46.575001 -24.622000 3.057000
26.691000 -13.792000 -0.711000
44.362000 -22.985001 0.450000
45.223000 -23.576000 2.107000
27.423000 -14.095000 -0.211000
45.313000 -23.386999 1.256000
46.425999 -24.141001 3.042000
28.488001 -14.480000 -0.752000
45.478001 -23.179001 0.466000
45.397999 -23.280001 2.114000
37.729000 -19.075001 -0.284000
44.629002 -22.657000 1.239000
45.855000 -23.448999 3.003000
31.844999 -15.917000 -0.834000
44.588001 -22.344999 0.461000
45.507000 -22.948000 2.116000
37.840000 -18.815001 -0.279000
44.598999 -22.266001 1.239000
46.872002 -23.570999 3.064000
31.857000 -15.658000 -0.828000
44.731998 -22.045000 0.467000
45.618999 -22.617001 2.120000
37.790001 -18.472000 -0.274000
29.382000 -14.420000 0.816000
46.487000 -22.982000 3.031000
29.731001 -14.369000 -0.767000
29.665001 -14.374000 0.311000
45.839001 -22.344000 2.128000
37.922001 -18.225000 -0.271000
47.244999 -22.795000 1.312000
47.236000 -22.952999 3.075000
31.978001 -15.189000 -0.821000
45.984001 -21.898001 0.483000
45.849998 -21.969000 2.124000
37.889999 -17.900000 -0.267000
45.969002 -21.802000 1.275000
47.400002 -22.639000 3.078000
32.035999 -14.956000 -0.818000
44.893002 -21.011000 0.473000
46.014999 -21.663000 2.127000
38.139000 -17.702000 -0.267000
46.013000 -21.441000 1.274000
47.498001 -22.292999 3.076000
32.109001 -14.731000 -0.816000
46.290001 -21.290001 0.488000
47.678001 -22.056000 2.198000
37.904999 -17.288000 -0.264000
46.217999 -21.160999 1.277000
47.648998 -21.966999 3.077000
32.124001 -14.476000 -0.813000
46.360001 -20.943001 0.487000
46.248001 -21.018999 2.126000
37.891998 -16.978001 -0.262000
46.287998 -20.819000 1.275000
47.750999 -21.624001 3.073000
32.146000 -14.230000 -0.812000
46.464001 -20.618000 0.487000
46.648998 -20.818001 2.138000
37.789001 -16.627001 -0.261000
46.521000 -20.546000 1.277000
47.901001 -21.304001 3.073000
32.179001 -13.990000 -0.811000
46.598999 -20.306999 0.486000
48.070000 -21.066999 2.195000
37.852001 -16.355000 -0.262000
46.657001 -20.233999 1.276000
48.066002 -20.985001 3.073000
32.187000 -13.737000 -0.809000
46.710999 -19.981001 0.484000
48.185001 -20.732000 2.192000
38.063999 -16.146999 -0.264000
48.341000 -20.582001 1.316000
48.188999 -20.653000 3.069000
32.299999 -13.533000 -0.811000
41.303001 -17.344000 0.425000
48.325001 -20.405001 2.189000
38.327000 -15.955000 -0.267000
48.469002 -20.250999 1.314000
48.332001 -20.330000 3.066000
32.256001 -13.264000 -0.810000
41.058998 -16.921000 0.419000
48.474998 -20.086000 2.187000
38.013000 -15.529000 -0.266000
41.328999 -16.943001 1.113000
48.455002 -19.992001 3.061000
32.256001 -13.011000 -0.810000
41.140999 -16.632999 0.417000
48.591999 -19.754000 2.182000
38.033001 -15.244000 -0.268000
48.735001 -19.601000 1.306000
48.569000 -19.659000 3.056000
32.307999 -12.784000 -0.812000
41.257999 -16.360001 0.412000
47.167999 -18.802999 2.108000
37.886002 -14.890000 -0.270000
48.841999 -19.263000 1.302000
48.726002 -19.341999 3.053000
32.287998 -12.531000 -0.812000
47.191002 -18.351000 0.466000
48.876999 -19.106001 2.173000
37.953999 -14.627000 -0.274000
49.006001 -18.948999 1.296000
48.856998 -19.009001 3.047000
32.269001 -12.275000 -0.812000
42.573002 -16.228001 0.416000
47.766998 -18.305000 2.113000
37.931999 -14.332000 -0.277000
49.115002 -18.615999 1.290000
48.984001 -18.680000 3.041000
30.240999 -11.275000 -0.763000
44.056000 -16.457001 0.423000
47.757999 -17.931000 2.101000
37.932999 -14.041000 -0.280000
49.258999 -18.294001 1.286000
49.112999 -18.353001 3.035000
30.316999 -11.077000 -0.767000
41.458000 -15.174000 0.392000
49.255001 -18.118999 2.155000
38.035999 -13.795000 -0.285000
49.391998 -17.968000 1.279000
49.257999 -18.025999 3.029000
30.261000 -10.829000 -0.766000
40.379002 -14.474000 0.376000
49.369999 -17.788000 2.148000
37.948002 -13.489000 -0.289000
49.513000 -17.670000 1.273000
49.383999 -17.726999 3.023000
30.289000 -10.639000 -0.769000
41.308998 -14.545000 0.378000
48.025002 -17.009001 2.080000
38.150002 -13.331000 -0.293000
41.227001 -14.461000 1.053000
49.469002 -17.469999 3.017000
26.073000 -9.009000 -0.664000
41.318001 -14.313000 0.373000
48.303001 -16.826000 2.084000
38.022999 -13.069000 -0.297000
49.702000 -17.150000 1.261000
49.571999 -17.214001 3.012000
30.431000 -10.343000 -0.777000
41.477001 -14.129000 0.370000
48.682999 -16.677000 2.089000
38.035000 -12.858000 -0.301000
49.804001 -16.898001 1.257000
49.685001 -16.966999 3.007000
30.495001 -10.193000 -0.781000
41.512001 -13.904000 0.364000
49.803001 -16.777000 2.127000
37.692001 -12.527000 -0.301000
49.296001 -16.443001 1.234000
49.764999 -16.709999 3.000000
30.546000 -10.035000 -0.785000
41.540001 -13.680000 0.358000
48.335999 -16.004000 2.056000
37.182999 -12.148000 -0.302000
41.585999 -13.637000 1.034000
49.889000 -16.462999 2.996000
30.580999 -9.876000 -0.788000
41.695999 -13.497000 0.354000
50.015999 -16.275000 2.116000
37.470001 -12.032000 -0.309000
41.707001 -13.439000 1.031000
49.980999 -16.207001 2.989000
30.695000 -9.742000 -0.794000
41.770000 -13.282000 0.348000
50.138000 -16.032000 2.111000
36.088001 -11.385000 -0.301000
41.724998 -13.209000 1.023000
50.078999 -15.955000 2.983000
30.763000 -9.591000 -0.797000
42.844002 -13.385000 0.351000
50.237000 -15.778000 2.106000
35.932999 -11.135000 -0.304000
41.782001 -12.993000 1.017000
50.194000 -15.705000 2.978000
30.815001 -9.436000 -0.802000
42.653000 -13.089000 0.343000
50.318001 -15.519000 2.097000
38.499001 -11.718000 -0.331000
42.011002 -12.828000 1.016000
50.296001 -15.451000 2.971000
22.247000 -6.690000 -0.581000
42.803001 -12.895000 0.339000
50.411999 -15.267000 2.091000
38.799000 -11.593000 -0.337000
42.598000 -12.769000 1.022000
50.389999 -15.198000 2.965000
21.850000 -6.450000 -0.572000
42.705002 -12.629000 0.331000
50.509998 -15.016000 2.084000
38.945999 -11.421000 -0.344000
42.801998 -12.594000 1.019000
50.491001 -14.944000 2.959000
21.591000 -6.254000 -0.568000
42.764999 -12.411000 0.325000
50.618000 -14.764000 2.079000
39.125999 -11.260000 -0.351000
42.331001 -12.220000 1.001000
50.577999 -14.686000 2.951000
21.622999 -6.146000 -0.571000
43.226002 -12.306000 0.323000
50.723000 -14.513000 2.072000
22.424999 -6.331000 -0.203000
42.298000 -11.976000 0.992000
50.705002 -14.442000 2.946000
21.650000 -6.035000 -0.573000
43.219002 -12.067000 0.315000
50.831001 -14.264000 2.066000
22.275999 -6.168000 -0.204000
43.804001 -12.163000 1.019000
50.790001 -14.183000 2.940000
21.698999 -5.931000 -0.577000
42.285000 -11.576000 0.302000
47.841999 -13.160000 1.935000
21.785999 -5.913000 -0.203000
42.513000 -11.571000 0.982000
50.904999 -13.932000 2.934000
21.743000 -5.826000 -0.581000
43.452000 -11.658000 0.304000
51.014000 -13.752000 2.052000
21.725000 -5.779000 -0.205000
43.240002 -11.534000 0.991000
51.009998 -13.682000 2.928000
21.784000 -5.719000 -0.584000
43.326000 -11.388000 0.296000
51.132999 -13.506000 2.046000
21.770000 -5.673000 -0.208000
43.896000 -11.469000 0.998000
51.108002 -13.425000 2.922000
21.827999 -5.613000 -0.587000
22.486000 -5.789000 0.150000
51.227001 -13.250000 2.040000
21.820999 -5.569000 -0.212000
42.728001 -10.931000 0.964000
51.228001 -13.178000 2.917000
21.868999 -5.507000 -0.591000
22.031000 -5.553000 0.144000
51.344002 -13.000000 2.033000
21.858000 -5.462000 -0.215000
42.820999 -10.725000 0.959000
51.301998 -12.916000 2.908000
21.896000 -5.396000 -0.594000
21.856001 -5.391000 0.139000
51.433998 -12.745000 2.026000
21.889000 -5.351000 -0.218000
42.811001 -10.491000 0.950000
51.408001 -12.662000 2.903000
21.450001 -5.172000 -0.584000
21.906000 -5.286000 0.136000
51.521999 -12.487000 2.020000
21.943001 -5.247000 -0.222000
22.702999 -5.442000 0.500000
51.534000 -12.415000 2.899000
20.777000 -4.899000 -0.568000
21.934000 -5.175000 0.133000
44.868000 -10.632000 1.749000
21.982000 -5.140000 -0.225000
22.413000 -5.252000 0.490000
51.653999 -12.164000 2.893000
20.101999 -4.633000 -0.552000
21.982000 -5.070000 0.130000
51.727001 -11.981000 2.007000
22.032000 -5.034000 -0.228000
22.002001 -5.038000 0.476000
51.722000 -11.899000 2.886000
19.545000 -4.402000 -0.538000
22.013000 -4.960000 0.126000
51.838001 -11.728000 2.002000
22.068001 -4.926000 -0.232000
21.997999 -4.920000 0.473000
51.818001 -11.644000 2.880000
19.229000 -4.230000 -0.532000
22.065001 -4.854000 0.124000
22.840000 -5.046000 0.877000
20.344000 -4.434000 -0.216000
22.042999 -4.813000 0.470000
51.915001 -11.387000 2.873000
18.997000 -4.078000 -0.527000
22.096001 -4.745000 0.120000
22.643999 -4.882000 0.865000
19.969999 -4.247000 -0.215000
22.098000 -4.708000 0.467000
52.041000 -11.138000 2.869000
18.961000 -3.972000 -0.529000
22.157000 -4.642000 0.117000
22.195999 -4.667000 0.844000
19.507999 -4.047000 -0.212000
22.141001 -4.600000 0.465000
52.152000 -10.882000 2.865000
18.954000 -3.871000 -0.531000
20.079000 -4.100000 0.104000
22.134001 -4.537000 0.837000
19.294001 -3.901000 -0.213000
22.202000 -4.496000 0.462000
52.257999 -10.626000 2.859000
18.889000 -3.759000 -0.531000
20.205000 -4.021000 0.101000
22.173000 -4.428000 0.834000
19.181000 -3.778000 -0.214000
22.240999 -4.387000 0.460000
22.922001 -4.540000 1.249000
18.875999 -3.659000 -0.532000
19.701000 -3.817000 0.096000
22.207001 -4.317000 0.832000
19.091999 -3.662000 -0.215000
22.278000 -4.278000 0.457000
22.533001 -4.343000 1.224000
18.868999 -3.560000 -0.534000
19.424999 -3.662000 0.092000
22.254999 -4.210000 0.830000
19.046000 -3.554000 -0.217000
22.315001 -4.167000 0.454000
22.250999 -4.172000 1.204000
18.822001 -3.454000 -0.535000
19.361000 -3.550000 0.089000
22.299999 -4.101000 0.827000
19.007999 -3.448000 -0.219000
20.108999 -3.651000 0.406000
22.292999 -4.062000 1.202000
18.806999 -3.354000 -0.536000
19.294001 -3.437000 0.086000
22.378000 -3.998000 0.827000
18.964001 -3.342000 -0.221000
19.844000 -3.500000 0.397000
22.344000 -3.953000 1.200000
18.712000 -3.240000 -0.536000
19.229000 -3.325000 0.083000
22.379999 -3.882000 0.823000
18.921000 -3.237000 -0.222000
19.627001 -3.359000 0.390000
22.378000 -3.843000 1.198000
18.712999 -3.145000 -0.538000
19.195000 -3.221000 0.080000
22.469999 -3.781000 0.822000
18.885000 -3.133000 -0.224000
19.556000 -3.246000 0.386000
22.417999 -3.733000 1.196000
18.659000 -3.040000 -0.538000
19.204000 -3.123000 0.078000
20.490000 -3.340000 0.747000
18.809000 -3.025000 -0.225000
19.513000 -3.138000 0.382000
22.472000 -3.624000 1.195000
18.615999 -2.938000 -0.538000
19.136999 -3.015000 0.075000
20.226999 -3.193000 0.734000
18.774000 -2.922000 -0.227000
19.531000 -3.039000 0.380000
22.513000 -3.514000 1.193000
18.632000 -2.845000 -0.541000
19.125000 -2.914000 0.073000
20.070000 -3.064000 0.725000
18.729000 -2.819000 -0.229000
19.544001 -2.942000 0.377000
22.566000 -3.405000 1.192000
18.627001 -2.749000 -0.542000
19.077999 -2.810000 0.070000
20.198000 -2.980000 0.726000
18.718000 -2.723000 -0.230000
19.613001 -2.851000 0.376000
20.694000 -3.014000 1.090000
18.612000 -2.653000 -0.544000
19.072001 -2.711000 0.068000
20.256001 -2.884000 0.726000
