# This PCD file was generated using the MATLAB® pcwrite function
# from Computer Vision Toolbox®.
# .PCD v.7 - Point Cloud Data file format
VERSION .7
FIELDS x y z
SIZE 4 4 4
TYPE F F F
COUNT 1 1 1
WIDTH 1650
HEIGHT 1
VIEWPOINT 0 0 0 1 0 0 0
POINTS 1650
DATA ascii
17.740000 9.457000 4.732000
18.198000 9.234000 3.005000
18.066000 9.374000 3.702000
17.777000 9.446000 4.364000
18.153000 9.375000 3.366000
17.886999 9.448000 4.014000
17.576000 9.532000 4.702000
18.009001 9.292000 2.980000
17.912001 9.452000 3.680000
17.642000 9.534000 4.344000
17.978001 9.441000 3.342000
17.718000 9.516000 3.987000
17.423000 9.610000 4.675000
17.874001 9.377000 2.962000
17.746000 9.522000 3.654000
17.451000 9.591000 4.308000
17.775999 9.490000 3.312000
17.524000 9.570000 3.954000
17.235001 9.667000 4.639000
17.709000 9.445000 2.941000
17.568001 9.583000 3.626000
17.243000 9.634000 4.268000
17.648001 9.577000 3.294000
17.389000 9.654000 3.932000
17.076000 9.738000 4.608000
17.569000 9.523000 2.923000
17.412001 9.654000 3.602000
17.089001 9.707000 4.242000
17.459000 9.630000 3.266000
17.198000 9.703000 3.898000
16.910999 9.803000 4.576000
17.417999 9.594000 2.902000
17.223000 9.705000 3.570000
16.896999 9.755000 4.203000
17.313999 9.703000 3.244000
17.069000 9.787000 3.878000
16.750000 9.869000 4.545000
17.280001 9.670000 2.884000
17.099001 9.789000 3.551000
16.711000 9.803000 4.167000
17.152000 9.766000 3.218000
16.893000 9.842000 3.846000
16.612000 9.947000 4.519000
17.141001 9.743000 2.865000
16.910999 9.835000 3.520000
16.535999 9.856000 4.134000
16.999001 9.832000 3.196000
16.749001 9.913000 3.821000
16.444000 10.002000 4.484000
16.975000 9.800000 2.839000
16.780001 9.913000 3.498000
16.372999 9.913000 4.101000
16.834999 9.888000 3.169000
16.570999 9.961000 3.788000
16.306999 10.076000 4.458000
16.848000 9.877000 2.821000
16.603001 9.960000 3.466000
16.202999 9.963000 4.067000
16.709000 9.966000 3.148000
16.457001 10.047000 3.768000
16.118000 10.116000 4.416000
16.731001 9.958000 2.804000
16.500999 10.051000 3.450000
16.103001 10.055000 4.051000
16.549000 10.020000 3.121000
16.284000 10.092000 3.734000
16.013000 10.205000 4.396000
16.556999 10.004000 2.776000
16.320999 10.093000 3.416000
15.939000 10.105000 4.016000
16.427999 10.097000 3.102000
16.139999 10.155000 3.708000
15.842000 10.251000 4.359000
16.454000 10.090000 2.760000
16.181999 10.157000 3.391000
15.896000 10.230000 4.012000
16.253000 10.139000 3.070000
16.006001 10.222000 3.681000
15.689000 10.306000 4.324000
16.261000 10.119000 2.728000
16.055000 10.227000 3.369000
15.762000 10.296000 3.985000
16.115000 10.201000 3.046000
15.859000 10.278000 3.651000
15.573000 10.382000 4.300000
16.136999 10.189000 2.707000
15.885000 10.267000 3.335000
15.618000 10.352000 3.954000
15.981000 10.264000 3.023000
15.713000 10.333000 3.623000
15.027000 10.167000 4.157000
16.021000 10.261000 2.686000
15.750000 10.327000 3.308000
15.498000 10.423000 3.928000
15.810000 10.300000 2.990000
15.566000 10.385000 3.591000
14.875000 10.211000 4.121000
15.843000 10.293000 2.656000
15.621000 10.390000 3.283000
14.867000 10.144000 3.773000
15.696000 10.371000 2.968000
14.952000 10.117000 3.451000
14.945000 10.407000 4.145000
15.730000 10.364000 2.634000
14.992000 10.114000 3.151000
14.980000 10.366000 3.805000
15.541000 10.413000 2.938000
14.990000 10.287000 3.463000
14.980000 10.581000 4.160000
15.606000 10.425000 2.611000
14.944000 10.222000 3.141000
15.086000 10.587000 3.834000
14.940000 10.151000 2.822000
15.014000 10.449000 3.468000
14.868000 10.650000 4.133000
14.968000 10.137000 2.502000
15.023000 10.418000 3.157000
14.942000 10.632000 3.800000
15.078000 10.384000 2.846000
15.027000 10.601000 3.471000
14.752000 10.715000 4.103000
15.092000 10.362000 2.518000
15.068000 10.593000 3.164000
14.811000 10.683000 3.768000
15.161000 10.583000 2.859000
14.914000 10.665000 3.446000
14.590000 10.743000 4.062000
15.208000 10.581000 2.532000
14.945000 10.648000 3.136000
14.695000 10.745000 3.738000
15.004000 10.615000 2.825000
14.799000 10.726000 3.416000
14.421000 10.762000 4.016000
15.090000 10.638000 2.508000
14.831000 10.708000 3.110000
14.584000 10.807000 3.710000
14.864000 10.654000 2.794000
14.654000 10.761000 3.381000
14.265000 10.789000 3.973000
14.938000 10.670000 2.475000
14.726000 10.772000 3.083000
14.444000 10.845000 3.674000
14.721000 10.690000 2.763000
14.532000 10.812000 3.351000
14.136000 10.834000 3.938000
14.814000 10.718000 2.448000
14.581000 10.804000 3.048000
14.317000 10.890000 3.638000
14.562000 10.711000 2.726000
14.414000 10.864000 3.319000
14.017000 10.882000 3.904000
14.699000 10.771000 2.422000
14.440000 10.837000 3.015000
14.193000 10.935000 3.605000
14.436000 10.753000 2.695000
14.305000 10.918000 3.289000
13.950000 10.969000 3.882000
14.589000 10.826000 2.394000
14.340000 10.898000 2.986000
14.074000 10.980000 3.571000
14.339000 10.815000 2.671000
14.190000 10.966000 3.258000
13.887000 11.057000 3.862000
14.488000 10.884000 2.369000
14.233000 10.951000 2.957000
13.976000 11.040000 3.540000
14.261000 10.889000 2.646000
14.074000 11.012000 3.224000
13.788000 11.115000 3.832000
14.377000 10.933000 2.341000
14.114000 10.993000 2.925000
13.879000 11.097000 3.510000
14.175000 10.955000 2.621000
13.977000 11.068000 3.195000
13.635000 11.127000 3.783000
14.258000 10.974000 2.310000
14.012000 11.045000 2.894000
13.760000 11.135000 3.474000
14.080000 11.012000 2.594000
13.856000 11.104000 3.160000
13.545000 11.186000 3.753000
14.141000 11.012000 2.279000
13.914000 11.097000 2.864000
13.659000 11.185000 3.440000
13.980000 11.063000 2.564000
13.733000 11.135000 3.121000
13.428000 11.220000 3.714000
14.042000 11.064000 2.251000
13.810000 11.143000 2.833000
13.561000 11.234000 3.407000
13.871000 11.103000 2.532000
13.659000 11.203000 3.095000
13.331000 11.268000 3.678000
13.929000 11.100000 2.218000
13.701000 11.182000 2.798000
13.451000 11.270000 3.371000
13.763000 11.142000 2.500000
13.555000 11.245000 3.061000
13.228000 11.308000 3.641000
13.835000 11.149000 2.189000
13.601000 11.224000 2.765000
13.354000 11.315000 3.335000
13.664000 11.185000 2.467000
13.426000 11.261000 3.019000
13.127000 11.346000 3.605000
13.736000 11.192000 2.159000
13.493000 11.259000 2.731000
13.250000 11.349000 3.297000
13.572000 11.231000 2.436000
13.349000 11.318000 2.988000
13.074000 11.424000 3.578000
13.634000 11.230000 2.126000
13.391000 11.294000 2.694000
13.153000 11.387000 3.261000
13.485000 11.279000 2.405000
13.260000 11.362000 2.955000
12.979000 11.461000 3.540000
13.551000 11.280000 2.096000
13.251000 11.292000 2.651000
13.058000 11.424000 3.223000
13.412000 11.336000 2.374000
13.171000 11.404000 2.919000
12.890000 11.501000 3.503000
13.447000 11.311000 2.062000
13.119000 11.296000 2.609000
12.974000 11.466000 3.187000
13.310000 11.364000 2.339000
13.071000 11.432000 2.881000
12.790000 11.526000 3.460000
13.353000 11.346000 2.028000
12.995000 11.302000 2.566000
12.868000 11.486000 3.146000
13.219000 11.400000 2.305000
12.985000 11.468000 2.846000
12.698000 11.555000 3.419000
13.262000 11.381000 1.994000
12.945000 11.368000 2.538000
12.796000 11.532000 3.110000
13.134000 11.437000 2.269000
12.873000 11.479000 2.802000
12.612000 11.587000 3.381000
13.172000 11.413000 1.961000
12.935000 11.468000 2.517000
12.725000 11.576000 3.075000
13.033000 11.457000 2.231000
12.802000 11.523000 2.767000
12.549000 11.635000 3.344000
13.087000 11.447000 1.925000
12.873000 11.519000 2.484000
12.642000 11.606000 3.036000
12.949000 11.488000 2.196000
12.751000 11.581000 2.737000
12.494000 11.687000 3.310000
13.015000 11.488000 1.892000
12.789000 11.546000 2.446000
12.552000 11.624000 2.993000
12.896000 11.543000 2.164000
12.667000 11.604000 2.697000
12.400000 11.699000 3.266000
12.936000 11.520000 1.858000
12.716000 11.580000 2.409000
12.485000 11.659000 2.955000
12.812000 11.568000 2.126000
12.581000 11.623000 2.655000
12.316000 11.716000 3.221000
12.854000 11.546000 1.820000
12.662000 11.627000 2.376000
12.432000 11.705000 2.921000
12.730000 11.590000 2.089000
12.495000 11.637000 2.613000
12.250000 11.745000 3.181000
12.776000 11.571000 1.784000
12.589000 11.654000 2.337000
12.347000 11.717000 2.876000
12.667000 11.627000 2.052000
12.408000 11.647000 2.571000
12.194000 11.780000 3.143000
12.723000 11.616000 1.750000
12.496000 11.657000 2.294000
12.287000 11.747000 2.837000
12.615000 11.668000 2.017000
12.286000 11.620000 2.519000
12.122000 11.795000 3.098000
12.652000 11.642000 1.712000
12.455000 11.706000 2.261000
12.233000 11.779000 2.799000
12.520000 11.666000 1.975000
12.239000 11.658000 2.483000
12.061000 11.815000 3.056000
12.568000 11.650000 1.673000
12.388000 11.727000 2.220000
12.166000 11.795000 2.755000
12.459000 11.693000 1.936000
12.248000 11.746000 2.458000
12.023000 11.855000 3.019000
12.536000 11.702000 1.640000
12.336000 11.756000 2.182000
12.128000 11.833000 2.718000
12.425000 11.740000 1.902000
12.207000 11.782000 2.419000
11.969000 11.874000 2.976000
12.458000 11.709000 1.599000
12.292000 11.789000 2.145000
12.056000 11.835000 2.673000
12.359000 11.754000 1.862000
12.174000 11.822000 2.383000
11.932000 11.904000 2.936000
12.427000 11.755000 1.564000
12.219000 11.790000 2.100000
12.038000 11.883000 2.637000
12.323000 11.790000 1.824000
12.103000 11.820000 2.339000
11.877000 11.913000 2.893000
12.367000 11.770000 1.525000
12.184000 11.823000 2.063000
11.957000 11.866000 2.588000
12.250000 11.787000 1.782000
12.075000 11.856000 2.300000
11.832000 11.925000 2.848000
12.320000 11.793000 1.486000
12.113000 11.818000 2.020000
11.892000 11.860000 2.542000
12.217000 11.820000 1.745000
12.034000 11.873000 2.259000
11.198000 11.336000 2.663000
12.257000 11.796000 1.445000
12.094000 11.858000 1.982000
11.785000 11.805000 2.485000
12.158000 11.822000 1.702000
11.977000 11.872000 2.216000
10.941000 11.122000 2.571000
12.230000 11.828000 1.408000
12.067000 11.885000 1.943000
11.784000 11.851000 2.450000
12.130000 11.848000 1.663000
11.966000 11.910000 2.178000
11.483000 11.714000 2.662000
12.172000 11.828000 1.365000
12.006000 11.875000 1.899000
11.368000 11.475000 2.330000
12.104000 11.873000 1.625000
11.936000 11.924000 2.137000
11.719000 11.993000 2.681000
12.138000 11.846000 1.326000
11.987000 11.900000 1.859000
10.981000 11.120000 2.216000
12.049000 11.865000 1.581000
11.891000 11.919000 2.093000
10.689000 10.969000 2.411000
11.981000 11.738000 1.274000
11.978000 11.931000 1.821000
10.977000 11.148000 2.180000
12.033000 11.890000 1.542000
11.765000 11.828000 2.033000
10.681000 10.985000 2.373000
11.682000 11.484000 1.205000
11.924000 11.912000 1.776000
11.674000 11.884000 2.282000
12.013000 11.906000 1.503000
11.022000 11.108000 1.869000
10.662000 10.987000 2.334000
11.622000 11.461000 1.163000
11.909000 11.926000 1.735000
11.759000 11.992000 2.258000
11.998000 11.922000 1.462000
11.013000 11.122000 1.833000
10.674000 11.015000 2.300000
11.622000 11.492000 1.126000
11.881000 11.924000 1.693000
11.762000 12.013000 2.219000
11.964000 11.915000 1.420000
11.022000 11.149000 1.796000
10.667000 11.018000 2.260000
11.723000 11.618000 1.098000
11.120000 11.179000 1.548000
10.710000 10.951000 1.984000
11.941000 11.914000 1.378000
11.078000 11.220000 1.768000
10.656000 11.012000 2.220000
11.968000 11.882000 1.082000
11.047000 11.119000 1.500000
10.748000 10.996000 1.953000
11.941000 11.931000 1.338000
11.482000 11.637000 1.794000
10.665000 11.023000 2.184000
11.985000 11.917000 1.044000
11.046000 11.127000 1.462000
10.728000 10.977000 1.911000
11.611000 11.612000 1.262000
11.693000 11.854000 1.785000
10.672000 11.026000 2.145000
11.968000 11.913000 1.003000
11.035000 11.122000 1.424000
10.877000 11.127000 1.900000
11.177000 11.184000 1.178000
11.710000 11.870000 1.747000
10.685000 11.029000 2.108000
11.976000 11.928000 0.963000
11.032000 11.118000 1.384000
10.759000 10.998000 1.839000
11.183000 11.192000 1.140000
11.651000 11.805000 1.698000
10.690000 11.021000 2.070000
11.963000 11.918000 0.922000
11.042000 11.123000 1.347000
10.741000 10.968000 1.797000
11.226000 11.231000 1.106000
11.393000 11.533000 1.619000
10.697000 11.010000 2.030000
11.977000 11.929000 0.882000
11.060000 11.131000 1.312000
11.773000 12.003000 1.928000
11.410000 11.408000 1.085000
11.057000 11.177000 1.532000
10.722000 11.012000 1.994000
11.975000 11.921000 0.842000
11.062000 11.119000 1.272000
11.787000 11.992000 1.885000
11.711000 11.695000 1.073000
11.035000 11.135000 1.490000
10.756000 11.019000 1.961000
11.980000 11.913000 0.801000
11.109000 11.148000 1.238000
11.707000 11.884000 1.829000
11.968000 11.933000 1.055000
11.055000 11.131000 1.452000
10.765000 10.995000 1.920000
11.997000 11.912000 0.761000
11.542000 11.558000 1.247000
11.051000 11.186000 1.687000
11.981000 11.924000 1.015000
11.099000 11.146000 1.418000
11.764000 11.976000 2.054000
12.012000 11.905000 0.721000
11.445000 11.432000 1.195000
11.022000 11.121000 1.641000
12.008000 11.922000 0.977000
11.860000 11.875000 1.473000
11.080000 11.238000 1.893000
11.968000 11.836000 0.678000
11.533000 11.487000 1.164000
11.141000 11.200000 1.617000
11.920000 11.803000 0.927000
11.947000 11.921000 1.440000
11.017000 11.127000 1.840000
12.055000 11.890000 0.643000
11.590000 11.506000 1.130000
11.921000 11.937000 1.688000
12.063000 11.907000 0.897000
12.000000 11.929000 1.404000
11.760000 11.825000 1.919000
12.107000 11.906000 0.604000
11.850000 11.720000 1.113000
11.952000 11.916000 1.647000
12.095000 11.897000 0.859000
12.033000 11.912000 1.366000
11.902000 11.909000 1.899000
12.124000 11.881000 0.565000
12.048000 11.868000 1.090000
12.014000 11.921000 1.613000
12.113000 11.868000 0.819000
12.064000 11.889000 1.326000
11.988000 11.932000 1.867000
12.174000 11.885000 0.528000
12.106000 11.873000 1.055000
12.041000 11.888000 1.574000
12.179000 11.882000 0.783000
11.893000 11.664000 1.266000
12.020000 11.897000 1.828000
12.206000 11.867000 0.488000
12.166000 11.874000 1.018000
12.104000 11.884000 1.538000
12.206000 11.853000 0.745000
11.800000 11.512000 1.216000
12.100000 11.906000 1.796000
12.235000 11.842000 0.450000
12.189000 11.835000 0.979000
12.156000 11.868000 1.502000
12.254000 11.840000 0.707000
11.765000 11.413000 1.172000
12.117000 11.847000 1.754000
12.294000 11.840000 0.414000
12.262000 11.841000 0.945000
12.206000 11.844000 1.466000
12.310000 11.832000 0.670000
11.835000 11.414000 1.139000
12.213000 11.863000 1.725000
12.343000 11.825000 0.376000
12.292000 11.801000 0.906000
12.256000 11.816000 1.430000
12.344000 11.797000 0.634000
12.043000 11.543000 1.120000
12.245000 11.813000 1.687000
12.381000 11.796000 0.339000
12.378000 11.811000 0.873000
12.333000 11.810000 1.397000
12.414000 11.792000 0.598000
12.347000 11.756000 1.107000
12.331000 11.810000 1.655000
12.450000 11.792000 0.304000
12.408000 11.763000 0.837000
12.376000 11.769000 1.361000
12.451000 11.753000 0.561000
12.438000 11.762000 1.076000
12.368000 11.757000 1.619000
12.487000 11.753000 0.266000
12.488000 11.758000 0.802000
12.409000 11.713000 1.324000
12.540000 11.760000 0.529000
12.504000 11.739000 1.043000
12.445000 11.740000 1.587000
12.557000 11.742000 0.231000
12.527000 11.713000 0.767000
12.180000 11.409000 1.261000
12.574000 11.710000 0.492000
12.571000 11.715000 1.008000
12.506000 11.702000 1.554000
12.611000 11.712000 0.197000
12.615000 11.708000 0.735000
12.137000 11.280000 1.218000
12.648000 11.694000 0.458000
12.629000 11.678000 0.975000
12.575000 11.670000 1.522000
12.672000 11.685000 0.162000
12.683000 11.682000 0.701000
12.198000 11.244000 1.187000
12.733000 11.684000 0.426000
12.704000 11.655000 0.944000
12.669000 11.658000 1.494000
12.752000 11.672000 0.128000
12.741000 11.643000 0.668000
12.364000 11.303000 1.166000
12.784000 11.640000 0.392000
12.794000 11.640000 0.913000
12.759000 11.636000 1.465000
12.784000 11.611000 0.095000
12.826000 11.625000 0.638000
12.700000 11.510000 1.160000
12.860000 11.616000 0.359000
12.844000 11.587000 0.880000
12.808000 11.576000 1.432000
12.731000 11.470000 0.061000
12.901000 11.594000 0.605000
12.892000 11.579000 1.140000
12.947000 11.598000 0.329000
12.921000 11.555000 0.851000
12.888000 11.543000 1.404000
12.848000 11.481000 0.029000
12.960000 11.547000 0.574000
12.979000 11.552000 1.112000
12.993000 11.539000 0.296000
13.017000 11.537000 0.821000
12.948000 11.486000 1.373000
12.972000 11.494000 -0.001000
13.046000 11.521000 0.545000
13.037000 11.497000 1.082000
13.097000 11.529000 0.266000
13.111000 11.513000 0.793000
12.762000 11.213000 1.318000
13.105000 11.509000 -0.033000
13.139000 11.496000 0.515000
13.126000 11.464000 1.054000
13.187000 11.504000 0.236000
13.154000 11.443000 0.763000
12.693000 11.043000 1.276000
13.205000 11.494000 -0.064000
13.225000 11.464000 0.486000
13.243000 11.454000 1.029000
13.269000 11.468000 0.206000
13.267000 11.430000 0.735000
12.788000 11.014000 1.252000
13.289000 11.460000 -0.093000
13.299000 11.418000 0.457000
13.330000 11.415000 1.002000
13.324000 11.408000 0.176000
13.362000 11.399000 0.709000
12.899000 10.996000 1.230000
13.361000 11.414000 -0.124000
13.391000 11.384000 0.429000
13.416000 11.372000 0.976000
13.394000 11.357000 0.149000
13.453000 11.362000 0.682000
13.193000 11.130000 1.225000
13.450000 11.380000 -0.153000
13.489000 11.354000 0.403000
13.518000 11.341000 0.951000
13.437000 11.281000 0.119000
13.566000 11.341000 0.657000
13.484000 11.255000 1.219000
13.531000 11.335000 -0.181000
13.594000 11.327000 0.377000
13.597000 11.288000 0.926000
13.493000 11.214000 0.092000
13.670000 11.310000 0.632000
13.633000 11.258000 1.201000
13.651000 11.321000 -0.210000
13.693000 11.290000 0.350000
13.686000 11.240000 0.901000
13.665000 11.240000 0.067000
13.742000 11.249000 0.607000
13.743000 11.226000 1.179000
13.758000 11.294000 -0.238000
13.798000 11.257000 0.326000
13.776000 11.192000 0.878000
13.810000 11.240000 0.040000
13.826000 11.196000 0.582000
13.856000 11.193000 1.159000
13.847000 11.248000 -0.263000
13.885000 11.208000 0.301000
13.882000 11.155000 0.856000
13.915000 11.206000 0.015000
13.924000 11.152000 0.558000
13.965000 11.153000 1.137000
13.943000 11.205000 -0.291000
13.991000 11.170000 0.276000
14.000000 11.124000 0.836000
14.013000 11.163000 -0.008000
14.029000 11.113000 0.536000
14.071000 11.111000 1.117000
14.029000 11.153000 -0.316000
14.080000 11.117000 0.253000
14.109000 11.083000 0.814000
14.103000 11.111000 -0.034000
14.146000 11.079000 0.514000
14.181000 11.069000 1.099000
14.132000 11.112000 -0.340000
14.188000 11.078000 0.230000
14.204000 11.031000 0.793000
14.212000 11.072000 -0.057000
14.248000 11.032000 0.493000
14.274000 11.012000 1.077000
14.238000 11.070000 -0.366000
14.243000 10.993000 0.207000
14.317000 10.990000 0.774000
14.324000 11.033000 -0.079000
14.349000 10.983000 0.472000
14.386000 10.968000 1.059000
14.342000 11.025000 -0.390000
14.305000 10.914000 0.185000
14.435000 10.949000 0.754000
14.430000 10.986000 -0.103000
14.463000 10.940000 0.451000
14.499000 10.922000 1.042000
14.464000 10.991000 -0.413000
14.390000 10.851000 0.164000
14.537000 10.896000 0.735000
14.554000 10.953000 -0.125000
14.594000 10.909000 0.432000
14.610000 10.872000 1.024000
14.579000 10.949000 -0.437000
14.556000 10.846000 0.144000
14.666000 10.860000 0.719000
14.675000 10.913000 -0.146000
14.704000 10.860000 0.413000
14.715000 10.818000 1.007000
14.693000 10.906000 -0.459000
14.732000 10.846000 0.125000
14.786000 10.815000 0.701000
14.797000 10.872000 -0.168000
14.849000 10.833000 0.396000
14.821000 10.761000 0.992000
14.807000 10.859000 -0.480000
14.885000 10.827000 0.106000
14.925000 10.784000 0.685000
14.901000 10.817000 -0.188000
14.961000 10.782000 0.378000
14.972000 10.734000 0.978000
14.933000 10.818000 -0.503000
14.995000 10.772000 0.087000
15.045000 10.735000 0.670000
15.031000 10.777000 -0.207000
15.078000 10.732000 0.361000
15.108000 10.696000 0.964000
15.046000 10.767000 -0.524000
15.110000 10.720000 0.069000
15.149000 10.673000 0.653000
15.140000 10.720000 -0.227000
15.190000 10.675000 0.344000
15.235000 10.649000 0.952000
15.152000 10.709000 -0.543000
15.202000 10.650000 0.051000
15.281000 10.630000 0.638000
15.242000 10.658000 -0.245000
15.298000 10.615000 0.327000
15.350000 10.591000 0.937000
15.262000 10.650000 -0.563000
15.331000 10.604000 0.034000
15.239000 10.465000 0.618000
15.366000 10.610000 -0.263000
15.242000 10.442000 0.308000
15.239000 10.379000 0.910000
15.401000 10.611000 -0.583000
15.284000 10.436000 0.018000
15.230000 10.323000 0.598000
15.307000 10.433000 -0.278000
15.264000 10.320000 0.292000
15.117000 10.160000 0.885000
15.329000 10.427000 -0.594000
15.251000 10.280000 0.002000
15.165000 10.144000 0.578000
15.323000 10.309000 -0.292000
15.191000 10.137000 0.274000
15.724000 10.428000 0.901000
15.324000 10.286000 -0.607000
15.234000 10.133000 -0.012000
15.819000 10.442000 0.587000
15.259000 10.132000 -0.305000
15.698000 10.338000 0.267000
15.884000 10.395000 0.892000
15.292000 10.132000 -0.618000
15.866000 10.414000 -0.027000
15.914000 10.364000 0.573000
15.887000 10.408000 -0.331000
15.844000 10.293000 0.254000
15.983000 10.318000 0.880000
15.921000 10.409000 -0.655000
15.979000 10.349000 -0.042000
16.037001 10.304000 0.561000
16.007000 10.347000 -0.346000
15.968000 10.235000 0.242000
16.093000 10.247000 0.869000
16.033001 10.340000 -0.671000
16.167999 10.328000 -0.056000
16.231001 10.287000 0.553000
16.208000 10.337000 -0.363000
16.204000 10.246000 0.231000
16.299999 10.237000 0.864000
16.215000 10.317000 -0.690000
16.259001 10.246000 -0.069000
16.323000 10.202000 0.540000
16.306999 10.257000 -0.377000
16.351999 10.196000 0.219000
16.405001 10.161000 0.854000
16.327999 10.248000 -0.705000
16.382000 10.182000 -0.082000
16.445999 10.137000 0.530000
16.423000 10.188000 -0.390000
16.504999 10.150000 0.209000
16.528999 10.094000 0.845000
16.469000 10.192000 -0.720000
16.555000 10.145000 -0.094000
16.636000 10.111000 0.524000
16.590000 10.149000 -0.405000
16.670000 10.108000 0.198000
16.716999 10.065000 0.840000
16.625000 10.145000 -0.736000
16.705000 10.094000 -0.106000
16.771000 10.048000 0.514000
16.731001 10.090000 -0.418000
16.797001 10.039000 0.188000
16.823999 9.985000 0.832000
16.754999 10.081000 -0.750000
16.827000 10.025000 -0.117000
16.872000 9.966000 0.505000
16.868999 10.030000 -0.431000
16.903999 9.961000 0.178000
16.973000 9.929000 0.826000
16.888000 10.015000 -0.764000
17.000999 9.982000 -0.128000
17.063000 9.933000 0.499000
17.028000 9.980000 -0.444000
17.107000 9.935000 0.170000
17.136000 9.879000 0.821000
17.066000 9.976000 -0.780000
17.134001 9.915000 -0.139000
17.191999 9.862000 0.491000
17.174999 9.918000 -0.456000
17.215000 9.851000 0.161000
17.263000 9.806000 0.816000
17.176001 9.895000 -0.791000
17.264999 9.846000 -0.149000
17.323000 9.792000 0.484000
17.296000 9.843000 -0.466000
17.406000 9.815000 0.153000
17.427999 9.753000 0.811000
17.285999 9.810000 -0.802000
17.438999 9.798000 -0.158000
17.441999 9.713000 0.478000
17.483999 9.804000 -0.478000
17.541000 9.745000 0.145000
17.577999 9.691000 0.807000
17.417000 9.738000 -0.814000
17.570000 9.724000 -0.167000
17.563000 9.634000 0.470000
17.587000 9.713000 -0.488000
17.665001 9.667000 0.138000
17.726000 9.626000 0.803000
17.499001 9.638000 -0.823000
17.749001 9.676000 -0.176000
17.695000 9.560000 0.465000
17.771999 9.667000 -0.499000
17.819000 9.603000 0.131000
17.889000 9.565000 0.800000
17.680000 9.589000 -0.836000
17.865999 9.592000 -0.183000
17.827999 9.486000 0.460000
17.912001 9.596000 -0.508000
17.974001 9.539000 0.124000
18.045000 9.501000 0.798000
17.867001 9.542000 -0.849000
18.059000 9.546000 -0.192000
18.004000 9.430000 0.456000
18.093000 9.542000 -0.519000
18.155001 9.486000 0.119000
18.198000 9.434000 0.796000
18.100000 9.518000 -0.864000
18.188999 9.467000 -0.200000
18.162001 9.365000 0.452000
18.237000 9.469000 -0.527000
18.304001 9.414000 0.113000
18.360001 9.367000 0.794000
18.273001 9.457000 -0.876000
18.384001 9.418000 -0.206000
18.386000 9.332000 0.450000
18.422001 9.415000 -0.537000
18.485001 9.358000 0.108000
18.518000 9.299000 0.793000
18.464001 9.406000 -0.888000
18.497000 9.325000 -0.213000
18.559000 9.269000 0.448000
18.551001 9.329000 -0.544000
18.671000 9.301000 0.104000
18.702000 9.241000 0.793000
18.618000 9.334000 -0.898000
18.705000 9.280000 -0.220000
18.764000 9.222000 0.446000
18.752001 9.280000 -0.554000
18.805000 9.216000 0.099000
18.834999 9.155000 0.791000
18.761999 9.252000 -0.906000
18.889000 9.219000 -0.226000
18.952999 9.164000 0.445000
18.924000 9.213000 -0.562000
19.000999 9.161000 0.095000
19.040001 9.104000 0.793000
18.975000 9.205000 -0.918000
19.014000 9.127000 -0.231000
19.082001 9.073000 0.442000
19.066000 9.128000 -0.568000
19.129999 9.072000 0.092000
19.215000 9.037000 0.794000
19.107000 9.117000 -0.926000
19.240999 9.084000 -0.237000
19.297001 9.024000 0.442000
18.885000 8.892000 -0.565000
19.322001 9.009000 0.088000
19.354000 8.948000 0.794000
19.247000 9.028000 -0.933000
19.367001 8.990000 -0.241000
19.375000 8.909000 0.439000
18.966999 8.781000 -0.569000
19.518000 8.948000 0.086000
19.278999 8.763000 0.785000
19.473000 8.981000 -0.945000
19.561001 8.926000 -0.247000
19.362000 8.750000 0.435000
19.535999 8.889000 -0.587000
19.403999 8.744000 0.083000
19.445999 8.689000 0.787000
19.462999 8.823000 -0.944000
19.476999 8.736000 -0.248000
19.450001 8.639000 0.433000
19.510000 8.725000 -0.588000
19.472000 8.623000 0.079000
19.360001 8.499000 0.779000
19.563000 8.713000 -0.949000
19.459999 8.576000 -0.248000
19.365000 8.452000 0.427000
19.504000 8.571000 -0.588000
19.379000 8.432000 0.077000
19.275999 8.315000 0.771000
19.518000 8.541000 -0.946000
19.379000 8.390000 -0.249000
19.298000 8.273000 0.423000
19.421000 8.383000 -0.586000
19.301001 8.249000 0.075000
19.207001 8.139000 0.765000
19.438000 8.356000 -0.941000
19.309000 8.212000 -0.249000
19.219000 8.093000 0.418000
19.354000 8.205000 -0.584000
19.231001 8.071000 0.072000
18.915001 7.869000 0.750000
19.348000 8.166000 -0.936000
19.243000 8.036000 -0.249000
18.989000 7.852000 0.411000
19.243999 8.012000 -0.580000
19.038000 7.846000 0.070000
19.084000 7.796000 0.753000
19.046000 7.892000 -0.920000
19.094000 7.827000 -0.248000
19.170000 7.781000 0.413000
19.141001 7.821000 -0.576000
19.198999 7.768000 0.070000
19.250000 7.720000 0.757000
19.202000 7.811000 -0.926000
19.273001 7.756000 -0.250000
20.976999 8.356000 0.450000
19.329000 7.751000 -0.581000
21.011000 8.341000 0.075000
21.028000 8.273000 0.824000
19.386000 7.736000 -0.933000
21.055000 8.314000 -0.273000
21.191000 8.284000 0.453000
20.524000 8.076000 -0.616000
21.222000 8.266000 0.076000
21.222000 8.192000 0.829000
21.195999 8.299000 -1.017000
20.813000 8.061000 -0.270000
21.355000 8.187000 0.455000
20.677000 7.979000 -0.619000
21.426001 8.186000 0.076000
21.392000 8.099000 0.834000
21.422001 8.226000 -1.026000
20.854000 7.921000 -0.269000
21.546000 8.101000 0.458000
21.528000 8.147000 -0.643000
21.271999 7.968000 0.075000
21.570999 8.006000 0.839000
21.638000 8.145000 -1.033000
21.073999 7.849000 -0.271000
21.757000 8.020000 0.461000
21.781000 8.081000 -0.649000
21.164000 7.772000 0.075000
21.796000 7.930000 0.846000
21.844999 8.061000 -1.040000
21.879999 7.986000 -0.281000
21.792999 7.872000 0.461000
21.959000 7.982000 -0.652000
21.372999 7.692000 0.076000
21.990000 7.846000 0.852000
22.033001 7.972000 -1.046000
22.101000 7.909000 -0.282000
21.486000 7.617000 0.455000
22.139999 7.906000 -0.655000
22.200001 7.850000 0.080000
22.115000 7.754000 0.856000
19.886000 7.076000 -0.940000
22.302000 7.856000 -0.283000
21.732000 7.583000 0.460000
22.341000 7.849000 -0.659000
22.375000 7.787000 0.081000
21.906000 7.560000 0.847000
22.378000 7.835000 -1.056000
22.416000 7.770000 -0.283000
22.389000 7.685000 0.474000
22.469000 7.768000 -0.661000
22.555000 7.724000 0.082000
21.909000 7.437000 0.847000
22.561001 7.773000 -1.062000
22.569000 7.695000 -0.284000
22.653999 7.650000 0.479000
22.667999 7.710000 -0.664000
22.691999 7.642000 0.084000
22.122999 7.388000 0.855000
22.702999 7.694000 -1.066000
22.763000 7.635000 -0.285000
22.856001 7.593000 0.484000
22.844000 7.639000 -0.667000
22.898001 7.585000 0.086000
22.805000 7.490000 0.881000
22.891001 7.627000 -1.071000
22.872999 7.545000 -0.284000
23.004000 7.513000 0.488000
22.982000 7.558000 -0.669000
23.063000 7.513000 0.087000
22.983999 7.420000 0.887000
19.138000 6.270000 -0.893000
19.205999 6.228000 -0.237000
19.283001 6.191000 0.409000
19.150999 6.192000 -0.555000
19.216000 6.152000 0.074000
19.277000 6.119000 0.744000
19.091000 6.148000 -0.888000
19.166000 6.109000 -0.235000
19.218000 6.066000 0.408000
19.110001 6.071000 -0.552000
19.163000 6.030000 0.075000
19.240000 6.002000 0.743000
19.025000 6.020000 -0.882000
19.108999 5.985000 -0.233000
19.166000 5.944000 0.408000
19.045000 5.946000 -0.548000
19.118999 5.912000 0.076000
19.188000 5.880000 0.741000
18.941000 5.889000 -0.875000
19.056000 5.865000 -0.230000
19.121000 5.826000 0.407000
19.013000 5.832000 -0.544000
19.086000 5.796000 0.077000
19.143999 5.763000 0.739000
18.791000 5.738000 -0.866000
19.025999 5.750000 -0.228000
19.077000 5.709000 0.407000
18.972000 5.714000 -0.541000
19.021999 5.673000 0.078000
19.100000 5.647000 0.738000
18.712000 5.610000 -0.859000
18.976000 5.632000 -0.226000
19.040001 5.595000 0.407000
18.941000 5.601000 -0.538000
18.976999 5.557000 0.079000
19.059000 5.530000 0.736000
18.775999 5.526000 -0.859000
18.913000 5.510000 -0.223000
19.000000 5.479000 0.407000
18.879000 5.480000 -0.534000
18.938000 5.442000 0.080000
19.002001 5.412000 0.735000
18.792999 5.429000 -0.857000
18.875999 5.396000 -0.221000
18.944000 5.362000 0.407000
18.819000 5.361000 -0.530000
18.872999 5.322000 0.081000
18.951000 5.297000 0.733000
18.863001 5.345000 -0.857000
18.931000 5.309000 -0.220000
18.947001 5.261000 0.408000
18.955000 5.295000 -0.531000
18.985001 5.252000 0.083000
19.025000 5.214000 0.737000
18.992001 5.278000 -0.860000
19.056999 5.243000 -0.219000
19.094999 5.199000 0.412000
19.114000 5.237000 -0.533000
19.141001 5.192000 0.086000
19.176001 5.154000 0.743000
19.016001 5.183000 -0.858000
19.222000 5.183000 -0.219000
19.250000 5.139000 0.417000
19.254999 5.172000 -0.534000
19.297001 5.130000 0.088000
19.333000 5.093000 0.750000
18.990999 5.071000 -0.854000
19.364000 5.118000 -0.219000
19.399000 5.076000 0.421000
19.422001 5.111000 -0.536000
19.459000 5.070000 0.090000
19.479000 5.027000 0.756000
18.971001 4.964000 -0.850000
19.521999 5.056000 -0.218000
19.569000 5.015000 0.426000
19.502001 5.028000 -0.536000
19.608000 5.005000 0.093000
19.648001 4.968000 0.763000
18.893000 4.843000 -0.844000
19.691999 4.994000 -0.218000
19.725000 4.951000 0.431000
19.486000 4.920000 -0.533000
19.771999 4.941000 0.095000
19.804001 4.903000 0.770000
18.719999 4.697000 -0.833000
19.849001 4.929000 -0.218000
19.865000 4.882000 0.435000
19.459000 4.809000 -0.530000
19.917000 4.872000 0.097000
19.971001 4.840000 0.778000
18.656000 4.582000 -0.828000
20.011000 4.863000 -0.217000
20.049000 4.820000 0.440000
19.424999 4.697000 -0.526000
20.101000 4.812000 0.100000
20.132999 4.772000 0.785000
18.632999 4.477000 -0.824000
20.000999 4.753000 -0.215000
20.208000 4.753000 0.445000
19.191999 4.540000 -0.517000
20.266001 4.743000 0.103000
20.304001 4.707000 0.793000
18.603001 4.371000 -0.819000
19.969000 4.641000 -0.212000
20.382999 4.688000 0.450000
19.145000 4.426000 -0.514000
20.420000 4.672000 0.105000
20.473000 4.640000 0.800000
18.566000 4.263000 -0.815000
19.929001 4.528000 -0.210000
20.549999 4.617000 0.456000
19.131001 4.322000 -0.511000
20.561001 4.598000 0.108000
20.643000 4.570000 0.808000
18.511999 4.153000 -0.810000
19.917999 4.419000 -0.207000
20.726000 4.549000 0.461000
19.104000 4.216000 -0.508000
20.540001 4.484000 0.110000
20.827000 4.503000 0.816000
18.424999 4.037000 -0.803000
19.858999 4.302000 -0.204000
20.893000 4.478000 0.466000
19.048000 4.103000 -0.504000
20.475000 4.364000 0.111000
20.995001 4.431000 0.824000
18.351000 3.922000 -0.797000
19.764000 4.179000 -0.201000
20.951000 4.380000 0.469000
18.997999 3.993000 -0.500000
20.427000 4.248000 0.113000
21.169001 4.357000 0.832000
18.290001 3.814000 -0.792000
19.716999 4.067000 -0.199000
20.929001 4.268000 0.470000
18.916000 3.877000 -0.495000
20.375000 4.130000 0.114000
21.357000 4.286000 0.840000
18.309000 3.722000 -0.790000
19.702999 3.960000 -0.196000
20.927000 4.160000 0.471000
18.757000 3.745000 -0.489000
20.311001 4.012000 0.116000
21.378000 4.181000 0.842000
18.341999 3.631000 -0.789000
19.600000 3.839000 -0.193000
20.919001 4.051000 0.473000
18.739000 3.645000 -0.486000
20.285000 3.903000 0.117000
21.392000 4.073000 0.844000
18.421000 3.551000 -0.789000
19.517000 3.722000 -0.190000
20.850000 3.929000 0.472000
18.830999 3.566000 -0.486000
20.237000 3.788000 0.119000
21.316999 3.950000 0.842000
18.445999 3.461000 -0.788000
19.290001 3.577000 -0.186000
20.789000 3.812000 0.473000
18.868000 3.475000 -0.485000
20.160000 3.671000 0.120000
21.297001 3.838000 0.842000
18.450001 3.364000 -0.785000
19.195999 3.462000 -0.183000
20.718000 3.693000 0.472000
18.864000 3.376000 -0.482000
20.108000 3.559000 0.122000
21.243000 3.718000 0.841000
18.479000 3.274000 -0.784000
19.247999 3.373000 -0.182000
20.632999 3.571000 0.472000
18.855000 3.277000 -0.480000
19.955999 3.429000 0.122000
21.187000 3.601000 0.840000
18.497000 3.182000 -0.783000
19.280001 3.278000 -0.180000
20.583000 3.458000 0.472000
18.854000 3.181000 -0.478000
19.837000 3.307000 0.123000
21.157000 3.489000 0.840000
18.513000 3.088000 -0.781000
19.264000 3.178000 -0.178000
20.549000 3.349000 0.473000
18.892000 3.089000 -0.477000
19.611000 3.170000 0.123000
21.089001 3.370000 0.838000
18.538000 2.997000 -0.779000
19.221001 3.073000 -0.176000
20.511000 3.237000 0.473000
18.877001 2.990000 -0.474000
19.593000 3.068000 0.125000
21.000999 3.250000 0.836000
18.525000 2.900000 -0.777000
19.184999 2.968000 -0.174000
20.458000 3.124000 0.474000
18.889000 2.894000 -0.472000
19.559999 2.960000 0.127000
20.896999 3.128000 0.833000
18.549999 2.806000 -0.775000
19.152000 2.864000 -0.172000
20.400999 3.012000 0.474000
18.886999 2.796000 -0.470000
19.534000 2.858000 0.128000
20.771999 3.005000 0.829000
18.542999 2.710000 -0.773000
19.145000 2.766000 -0.170000
20.194000 2.878000 0.470000
18.908001 2.703000 -0.469000
19.518000 2.757000 0.129000
20.618000 2.877000 0.824000
18.527000 2.613000 -0.770000
19.157000 2.669000 -0.168000
19.961000 2.745000 0.466000
18.882000 2.604000 -0.466000
19.514999 2.657000 0.131000
20.478001 2.755000 0.819000
18.556999 2.522000 -0.769000
19.166000 2.574000 -0.167000
19.896000 2.637000 0.465000
18.896000 2.508000 -0.465000
19.511999 2.559000 0.132000
20.525999 2.659000 0.822000
18.566000 2.428000 -0.767000
19.136999 2.473000 -0.165000
19.871000 2.532000 0.466000
18.931999 2.418000 -0.464000
19.510000 2.461000 0.133000
20.506001 2.553000 0.822000
18.566000 2.334000 -0.766000
19.134001 2.375000 -0.163000
19.855000 2.431000 0.467000
18.938000 2.323000 -0.462000
19.514000 2.361000 0.135000
20.440001 2.443000 0.821000
18.584000 2.243000 -0.764000
19.148001 2.281000 -0.162000
19.865999 2.333000 0.468000
18.955999 2.228000 -0.461000
19.531000 2.266000 0.136000
20.388000 2.335000 0.819000
18.590000 2.148000 -0.763000
19.167999 2.187000 -0.161000
19.893000 2.235000 0.470000
18.948999 2.132000 -0.460000
19.528000 2.168000 0.137000
20.403000 2.234000 0.821000
18.614000 2.057000 -0.762000
19.191000 2.094000 -0.160000
19.905001 2.138000 0.471000
18.964001 2.039000 -0.458000
19.549000 2.071000 0.138000
20.452999 2.138000 0.824000
18.611000 1.963000 -0.760000
19.201000 1.997000 -0.158000
19.955999 2.044000 0.473000
18.951000 1.940000 -0.457000
19.577999 1.977000 0.140000
20.528000 2.044000 0.827000
18.606001 1.867000 -0.759000
19.226999 1.904000 -0.157000
20.148001 1.963000 0.478000
18.962000 1.847000 -0.456000
19.566999 1.879000 0.141000
20.660000 1.953000 0.833000
18.607000 1.773000 -0.757000
19.216999 1.807000 -0.156000
20.358000 1.882000 0.484000
18.978001 1.753000 -0.455000
19.584999 1.781000 0.142000
20.660999 1.851000 0.834000
18.606001 1.680000 -0.756000
19.245001 1.712000 -0.155000
20.462000 1.790000 0.488000
19.002001 1.659000 -0.454000
19.631001 1.688000 0.143000
20.659000 1.749000 0.835000
18.621000 1.586000 -0.755000
19.268999 1.618000 -0.154000
20.541000 1.696000 0.490000
18.979000 1.562000 -0.452000
19.662001 1.593000 0.144000
20.702000 1.649000 0.837000
18.625000 1.493000 -0.754000
19.283001 1.524000 -0.154000
20.534000 1.592000 0.491000
18.987000 1.468000 -0.452000
19.664000 1.494000 0.145000
20.702000 1.547000 0.838000
18.627001 1.400000 -0.753000
19.285999 1.426000 -0.153000
20.547001 1.491000 0.492000
19.002001 1.375000 -0.451000
19.653000 1.396000 0.146000
20.722000 1.447000 0.839000
18.636000 1.306000 -0.752000
19.268999 1.330000 -0.152000
20.542000 1.390000 0.492000
19.014000 1.279000 -0.450000
19.701000 1.302000 0.147000
20.729000 1.344000 0.840000
18.600000 1.210000 -0.750000
19.257999 1.233000 -0.151000
20.563000 1.288000 0.493000
19.014999 1.185000 -0.449000
19.625000 1.199000 0.147000
20.746000 1.243000 0.841000
18.601999 1.118000 -0.749000
19.278000 1.137000 -0.150000
20.555000 1.187000 0.494000
18.987000 1.089000 -0.448000
19.576000 1.099000 0.147000
20.763000 1.142000 0.842000
18.612000 1.024000 -0.749000
19.302999 1.043000 -0.150000
20.563999 1.086000 0.494000
18.986000 0.992000 -0.447000
19.538000 1.001000 0.147000
20.771000 1.040000 0.842000
18.615999 0.931000 -0.748000
19.305000 0.948000 -0.149000
20.570999 0.983000 0.495000
18.978001 0.898000 -0.446000
19.518999 0.903000 0.148000
20.760000 0.937000 0.842000
18.611000 0.838000 -0.747000
19.268000 0.849000 -0.149000
20.570000 0.882000 0.495000
18.966999 0.803000 -0.446000
19.496000 0.805000 0.148000
20.754999 0.835000 0.842000
18.601999 0.744000 -0.746000
19.277000 0.755000 -0.148000
20.562000 0.781000 0.495000
18.948000 0.707000 -0.445000
19.479000 0.708000 0.148000
20.766001 0.734000 0.843000
18.586000 0.650000 -0.745000
19.278999 0.660000 -0.148000
20.552999 0.678000 0.495000
18.952000 0.613000 -0.444000
19.487000 0.613000 0.148000
20.770000 0.630000 0.843000
18.556999 0.557000 -0.743000
19.236000 0.562000 -0.147000
20.558001 0.577000 0.496000
18.941000 0.519000 -0.444000
19.440001 0.514000 0.148000
20.771999 0.529000 0.843000
18.532000 0.463000 -0.742000
19.254999 0.467000 -0.147000
20.573999 0.477000 0.496000
18.903999 0.423000 -0.443000
19.461000 0.419000 0.148000
20.764000 0.427000 0.843000
18.540001 0.371000 -0.742000
19.212000 0.372000 -0.147000
20.570000 0.374000 0.496000
18.878000 0.329000 -0.442000
19.451000 0.323000 0.148000
20.738001 0.323000 0.842000
18.570999 0.279000 -0.743000
19.165001 0.275000 -0.146000
20.572001 0.274000 0.496000
18.879999 0.236000 -0.442000
19.451000 0.226000 0.148000
20.700001 0.222000 0.841000
18.531000 0.186000 -0.742000
19.160999 0.180000 -0.146000
20.593000 0.173000 0.497000
18.871000 0.140000 -0.442000
19.448999 0.130000 0.148000
20.711000 0.121000 0.841000
18.469999 0.092000 -0.739000
19.174000 0.086000 -0.146000
20.549000 0.072000 0.496000
18.851999 0.047000 -0.442000
19.459999 0.035000 0.148000
20.667999 0.018000 0.839000
18.433001 0.001000 -0.738000
19.150999 -0.008000 -0.146000
20.558001 -0.029000 0.496000
18.827999 -0.045000 -0.441000
19.490999 -0.062000 0.148000
20.655001 -0.082000 0.838000
18.420000 -0.090000 -0.738000
19.117001 -0.104000 -0.146000
20.561001 -0.130000 0.495000
18.761000 -0.138000 -0.440000
19.450001 -0.157000 0.148000
20.635000 -0.183000 0.837000
18.385000 -0.182000 -0.737000
19.080999 -0.197000 -0.146000
20.556999 -0.230000 0.495000
18.716000 -0.231000 -0.439000
19.473000 -0.253000 0.148000
20.618999 -0.285000 0.836000
18.398001 -0.274000 -0.737000
19.046000 -0.291000 -0.146000
20.518000 -0.332000 0.494000
18.704000 -0.324000 -0.439000
19.459999 -0.349000 0.147000
20.580000 -0.385000 0.834000
18.362000 -0.364000 -0.737000
18.996000 -0.385000 -0.146000
20.476999 -0.432000 0.492000
18.702999 -0.416000 -0.440000
19.441000 -0.445000 0.147000
20.552000 -0.485000 0.833000
18.393000 -0.458000 -0.738000
18.947001 -0.478000 -0.147000
20.469000 -0.532000 0.492000
18.695000 -0.510000 -0.440000
19.365999 -0.538000 0.145000
20.552000 -0.587000 0.832000
18.395000 -0.549000 -0.739000
18.919001 -0.570000 -0.147000
20.473000 -0.634000 0.491000
18.677000 -0.602000 -0.440000
19.309000 -0.631000 0.144000
20.601000 -0.689000 0.834000
18.375999 -0.640000 -0.739000
18.917000 -0.665000 -0.148000
20.472000 -0.734000 0.491000
18.688000 -0.695000 -0.441000
19.285000 -0.727000 0.144000
20.594000 -0.789000 0.833000
18.365000 -0.733000 -0.739000
18.868999 -0.756000 -0.148000
20.486000 -0.835000 0.490000
18.693001 -0.789000 -0.442000
19.247999 -0.820000 0.143000
20.556000 -0.888000 0.831000
18.375000 -0.824000 -0.741000
18.903000 -0.851000 -0.149000
20.479000 -0.937000 0.489000
18.688999 -0.881000 -0.443000
19.198999 -0.913000 0.142000
20.559999 -0.990000 0.830000
18.384001 -0.916000 -0.742000
18.909000 -0.946000 -0.150000
20.485001 -1.037000 0.489000
18.687000 -0.974000 -0.444000
19.122000 -1.005000 0.140000
20.547001 -1.090000 0.829000
18.396000 -1.009000 -0.744000
18.898001 -1.039000 -0.151000
20.483000 -1.138000 0.488000
18.681999 -1.068000 -0.445000
19.077000 -1.096000 0.139000
20.591000 -1.193000 0.830000
18.410000 -1.102000 -0.745000
18.905001 -1.132000 -0.152000
20.517000 -1.242000 0.488000
18.681000 -1.160000 -0.446000
19.056000 -1.189000 0.138000
20.577999 -1.295000 0.829000
18.382999 -1.192000 -0.745000
18.857000 -1.224000 -0.152000
20.511000 -1.342000 0.487000
18.643999 -1.250000 -0.446000
19.066000 -1.285000 0.137000
20.521999 -1.392000 0.826000
18.451000 -1.288000 -0.750000
18.872999 -1.319000 -0.153000
20.504999 -1.443000 0.486000
18.646999 -1.345000 -0.447000
19.054001 -1.378000 0.136000
20.549000 -1.495000 0.826000
18.415001 -1.379000 -0.749000
18.843000 -1.410000 -0.154000
20.466000 -1.542000 0.484000
18.648001 -1.438000 -0.449000
19.047001 -1.471000 0.135000
20.559999 -1.598000 0.826000
18.464001 -1.475000 -0.753000
18.802000 -1.500000 -0.155000
20.476000 -1.644000 0.483000
18.636999 -1.529000 -0.450000
19.034000 -1.566000 0.134000
20.573000 -1.700000 0.825000
18.489000 -1.569000 -0.755000
18.787001 -1.593000 -0.156000
20.482000 -1.745000 0.482000
18.615000 -1.622000 -0.451000
19.063000 -1.663000 0.133000
20.542999 -1.799000 0.823000
18.499001 -1.665000 -0.758000
18.757999 -1.684000 -0.158000
20.475000 -1.845000 0.481000
18.615999 -1.714000 -0.452000
19.049999 -1.756000 0.131000
20.556000 -1.903000 0.822000
18.514000 -1.758000 -0.760000
18.763000 -1.777000 -0.159000
20.351000 -1.936000 0.477000
18.615000 -1.807000 -0.454000
19.079000 -1.855000 0.130000
20.584000 -2.007000 0.823000
18.531000 -1.852000 -0.762000
18.785000 -1.874000 -0.161000
20.125999 -2.014000 0.470000
18.608999 -1.900000 -0.455000
19.075001 -1.949000 0.129000
20.568001 -2.106000 0.821000
18.511000 -1.945000 -0.763000
18.825001 -1.972000 -0.162000
20.035000 -2.104000 0.467000
18.664000 -2.000000 -0.458000
19.076000 -2.043000 0.127000
20.590000 -2.212000 0.821000
18.507999 -2.037000 -0.765000
18.830999 -2.066000 -0.164000
19.893999 -2.190000 0.462000
18.650000 -2.091000 -0.460000
19.056000 -2.137000 0.126000
20.561001 -2.310000 0.818000
18.502001 -2.129000 -0.767000
18.827000 -2.161000 -0.166000
19.834000 -2.281000 0.460000
18.622999 -2.181000 -0.461000
19.080000 -2.235000 0.125000
20.559000 -2.412000 0.817000
18.448000 -2.218000 -0.767000
18.797001 -2.252000 -0.167000
19.854000 -2.382000 0.459000
18.617001 -2.276000 -0.463000
19.115999 -2.334000 0.123000
20.591000 -2.519000 0.817000
18.465000 -2.313000 -0.769000
18.750000 -2.340000 -0.168000
20.158001 -2.520000 0.464000
18.569000 -2.363000 -0.463000
19.111000 -2.429000 0.122000
20.493000 -2.609000 0.812000
18.469000 -2.406000 -0.772000
18.768000 -2.437000 -0.170000
20.165001 -2.621000 0.463000
18.625000 -2.463000 -0.467000
19.120001 -2.527000 0.120000
20.451000 -2.705000 0.809000
18.451000 -2.499000 -0.773000
18.730000 -2.526000 -0.172000
20.226999 -2.730000 0.463000
18.646999 -2.562000 -0.469000
19.150999 -2.627000 0.119000
20.379999 -2.798000 0.805000
18.452999 -2.592000 -0.776000
18.712000 -2.617000 -0.173000
20.042000 -2.807000 0.457000
18.593000 -2.648000 -0.470000
19.191999 -2.728000 0.117000
20.282000 -2.886000 0.800000
18.495001 -2.692000 -0.780000
18.736000 -2.717000 -0.175000
19.910999 -2.888000 0.453000
18.665001 -2.752000 -0.474000
19.193001 -2.826000 0.116000
20.268000 -2.985000 0.798000
18.503000 -2.788000 -0.782000
18.770000 -2.816000 -0.177000
19.770000 -2.966000 0.448000
18.656000 -2.847000 -0.476000
19.209999 -2.925000 0.114000
20.325001 -3.094000 0.799000
18.499001 -2.882000 -0.785000
18.827000 -2.919000 -0.180000
19.632000 -3.045000 0.444000
18.671000 -2.943000 -0.478000
19.245001 -3.027000 0.113000
20.413000 -3.212000 0.801000
18.504000 -2.976000 -0.787000
18.857000 -3.020000 -0.182000
19.589001 -3.137000 0.441000
18.694000 -3.042000 -0.481000
19.263000 -3.128000 0.111000
20.594000 -3.343000 0.807000
18.541000 -3.077000 -0.792000
18.912001 -3.125000 -0.185000
19.636999 -3.243000 0.441000
18.726000 -3.144000 -0.484000
19.285000 -3.229000 0.109000
22.455999 -3.758000 0.879000
18.551001 -3.175000 -0.795000
18.941999 -3.225000 -0.187000
19.719999 -3.358000 0.441000
18.726000 -3.239000 -0.487000
19.302000 -3.329000 0.108000
22.403000 -3.864000 0.875000
18.563999 -3.272000 -0.798000
18.981001 -3.329000 -0.189000
20.017000 -3.509000 0.446000
18.818001 -3.350000 -0.491000
19.309999 -3.430000 0.106000
22.358000 -3.968000 0.872000
18.608000 -3.374000 -0.802000
19.025999 -3.434000 -0.192000
20.198999 -3.643000 0.449000
18.853001 -3.454000 -0.495000
19.382000 -3.541000 0.104000
22.315001 -4.073000 0.869000
18.615000 -3.473000 -0.805000
19.059000 -3.537000 -0.194000
20.670000 -3.833000 0.458000
18.900000 -3.559000 -0.498000
19.462999 -3.654000 0.103000
22.271000 -4.179000 0.866000
18.598000 -3.565000 -0.807000
19.129000 -3.647000 -0.197000
22.288000 -4.247000 0.492000
18.900000 -3.656000 -0.501000
19.813000 -3.822000 0.103000
22.219000 -4.282000 0.863000
18.607000 -3.663000 -0.811000
19.194000 -3.759000 -0.200000
22.247000 -4.352000 0.489000
18.921000 -3.758000 -0.504000
20.268999 -4.014000 0.103000
22.194000 -4.389000 0.860000
18.653999 -3.770000 -0.815000
19.299999 -3.879000 -0.203000
22.184999 -4.452000 0.486000
18.969000 -3.866000 -0.508000
22.212999 -4.512000 0.111000
22.136999 -4.493000 0.857000
18.691000 -3.874000 -0.820000
19.500000 -4.019000 -0.208000
22.141001 -4.559000 0.483000
18.993000 -3.969000 -0.511000
22.165001 -4.617000 0.109000
22.153999 -4.609000 0.856000
18.695000 -3.971000 -0.823000
19.926001 -4.211000 -0.215000
22.101000 -4.663000 0.481000
19.010000 -4.071000 -0.513000
22.113001 -4.720000 0.106000
22.556999 -4.807000 0.871000
18.743999 -4.081000 -0.828000
20.346001 -4.404000 -0.221000
22.056999 -4.766000 0.478000
19.240999 -4.221000 -0.523000
22.080000 -4.826000 0.104000
22.792999 -4.976000 0.878000
18.719999 -4.173000 -0.830000
22.066999 -4.890000 -0.243000
22.013000 -4.872000 0.476000
19.577000 -4.396000 -0.534000
22.031000 -4.930000 0.102000
51.880001 -11.592000 1.997000
18.893000 -4.310000 -0.840000
22.047001 -5.002000 -0.245000
21.988001 -4.979000 0.473000
20.069000 -4.610000 -0.551000
22.000000 -5.037000 0.100000
51.773998 -11.834000 1.990000
18.990000 -4.433000 -0.848000
21.997999 -5.105000 -0.247000
22.167000 -5.134000 0.476000
20.733999 -4.873000 -0.572000
21.945000 -5.138000 0.097000
44.830002 -10.479000 1.722000
19.163000 -4.573000 -0.858000
21.965000 -5.211000 -0.249000
22.580000 -5.348000 0.483000
21.285000 -5.113000 -0.590000
21.915001 -5.244000 0.095000
51.581001 -12.324000 1.978000
19.459999 -4.746000 -0.875000
21.917999 -5.316000 -0.251000
22.707001 -5.495000 0.484000
21.882999 -5.371000 -0.609000
21.879999 -5.351000 0.093000
51.497002 -12.570000 1.972000
19.944000 -4.970000 -0.899000
21.875999 -5.419000 -0.253000
45.068001 -11.140000 0.958000
21.889999 -5.490000 -0.612000
21.872999 -5.463000 0.091000
48.250999 -12.027000 1.846000
20.513000 -5.221000 -0.928000
21.827999 -5.522000 -0.254000
47.504002 -11.993000 1.007000
21.848000 -5.594000 -0.614000
22.212000 -5.664000 0.091000
