# This PCD file was generated using the MATLAB® pcwrite function
# from Computer Vision Toolbox®.
# .PCD v.7 - Point Cloud Data file format
VERSION .7
FIELDS x y z
SIZE 4 4 4
TYPE F F F
COUNT 1 1 1
WIDTH 1644
HEIGHT 1
VIEWPOINT 0 0 0 1 0 0 0
POINTS 1644
DATA ascii
19.035000 2.178000 -0.318000
19.691999 2.294000 0.315000
20.618000 2.442000 0.994000
19.329000 2.268000 0.001000
20.054001 2.394000 0.632000
21.382999 2.600000 1.390000
19.039000 2.272000 -0.317000
19.680000 2.392000 0.316000
20.667999 2.552000 0.999000
19.322001 2.363000 0.002000
20.077999 2.497000 0.634000
21.632999 2.739000 1.409000
19.007999 2.363000 -0.317000
19.679001 2.490000 0.317000
20.674999 2.656000 1.001000
19.327999 2.460000 0.002000
20.208000 2.615000 0.640000
21.587000 2.843000 1.407000
19.042000 2.462000 -0.316000
19.695999 2.590000 0.318000
20.766001 2.773000 1.006000
19.309999 2.554000 0.003000
20.356001 2.735000 0.646000
22.091000 3.020000 1.442000
19.052999 2.557000 -0.316000
19.698000 2.689000 0.319000
20.909000 2.898000 1.015000
19.305000 2.649000 0.004000
20.364000 2.839000 0.647000
23.591999 3.345000 1.543000
19.035999 2.650000 -0.315000
19.738001 2.793000 0.321000
21.080999 3.027000 1.025000
19.346001 2.752000 0.005000
20.549999 2.968000 0.655000
23.392000 3.435000 1.532000
19.018999 2.742000 -0.314000
19.778999 2.898000 0.323000
21.186001 3.150000 1.032000
19.381001 2.854000 0.006000
20.639999 3.085000 0.659000
23.177000 3.521000 1.520000
19.018999 2.836000 -0.313000
19.990000 3.029000 0.328000
21.295000 3.274000 1.040000
19.423000 2.956000 0.007000
20.705000 3.199000 0.662000
22.952000 3.604000 1.508000
19.014000 2.931000 -0.313000
20.230000 3.167000 0.333000
21.372999 3.393000 1.045000
19.445999 3.058000 0.008000
20.764999 3.313000 0.667000
22.752001 3.687000 1.497000
19.007999 3.024000 -0.312000
20.289000 3.278000 0.336000
21.495001 3.522000 1.053000
19.420000 3.151000 0.009000
20.912001 3.441000 0.673000
22.556000 3.771000 1.486000
19.049000 3.126000 -0.312000
20.363001 3.392000 0.338000
21.672001 3.660000 1.064000
19.444000 3.252000 0.010000
20.959999 3.555000 0.676000
22.344000 3.850000 1.475000
19.040001 3.219000 -0.311000
20.400000 3.501000 0.340000
21.702000 3.775000 1.068000
19.464001 3.353000 0.010000
21.035999 3.675000 0.680000
22.146000 3.928000 1.465000
19.079000 3.322000 -0.311000
20.451000 3.613000 0.342000
21.822001 3.908000 1.075000
19.752001 3.501000 0.012000
21.065001 3.786000 0.683000
21.969000 4.009000 1.455000
19.084999 3.419000 -0.310000
20.507999 3.725000 0.345000
21.843000 4.022000 1.078000
19.874001 3.623000 0.013000
21.101000 3.900000 0.685000
21.767000 4.084000 1.445000
19.042000 3.506000 -0.309000
20.573000 3.842000 0.347000
21.735001 4.113000 1.076000
19.974001 3.742000 0.014000
21.105000 4.007000 0.687000
21.591000 4.161000 1.436000
19.035000 3.601000 -0.309000
20.649000 3.961000 0.350000
21.548000 4.188000 1.068000
20.041000 3.855000 0.015000
21.143999 4.122000 0.691000
21.392000 4.233000 1.424000
19.146999 3.718000 -0.310000
20.716000 4.078000 0.352000
21.375000 4.263000 1.062000
20.118000 3.972000 0.016000
21.184000 4.238000 0.693000
21.224001 4.308000 1.416000
19.302999 3.845000 -0.311000
20.735001 4.187000 0.353000
21.202000 4.337000 1.056000
20.181999 4.087000 0.017000
21.174000 4.343000 0.695000
21.035999 4.378000 1.406000
19.433001 3.969000 -0.313000
20.795000 4.305000 0.356000
21.020000 4.406000 1.049000
20.205999 4.193000 0.018000
21.023001 4.419000 0.692000
20.864000 4.450000 1.397000
19.459000 4.072000 -0.313000
20.802000 4.411000 0.358000
20.843000 4.477000 1.041000
20.246000 4.304000 0.019000
20.846001 4.489000 0.687000
20.688999 4.518000 1.388000
19.488001 4.177000 -0.313000
20.799000 4.517000 0.358000
20.660999 4.544000 1.035000
20.312000 4.421000 0.020000
20.674999 4.557000 0.683000
20.531000 4.590000 1.380000
19.552000 4.290000 -0.314000
20.636999 4.586000 0.357000
20.506001 4.614000 1.029000
20.363001 4.536000 0.020000
20.504000 4.624000 0.680000
20.349001 4.655000 1.370000
19.643000 4.409000 -0.315000
20.469000 4.654000 0.356000
20.334000 4.681000 1.022000
20.396000 4.647000 0.022000
20.337000 4.692000 0.675000
20.181999 4.720000 1.361000
19.728001 4.529000 -0.315000
20.299000 4.719000 0.353000
20.164000 4.745000 1.016000
20.297001 4.727000 0.022000
20.180000 4.758000 0.671000
20.030001 4.789000 1.354000
19.781000 4.642000 -0.316000
20.139000 4.784000 0.352000
20.009001 4.812000 1.010000
20.146000 4.796000 0.022000
20.004999 4.820000 0.668000
19.878000 4.856000 1.345000
19.802999 4.747000 -0.316000
19.971001 4.847000 0.350000
19.850000 4.876000 1.004000
19.980000 4.858000 0.023000
19.855000 4.885000 0.664000
19.716999 4.919000 1.337000
19.830000 4.855000 -0.316000
19.816000 4.912000 0.348000
19.683001 4.937000 0.997000
19.816999 4.919000 0.024000
19.686001 4.946000 0.659000
19.558001 4.981000 1.329000
19.788000 4.946000 -0.316000
19.660999 4.974000 0.346000
19.525000 4.999000 0.991000
19.674000 4.985000 0.024000
19.540001 5.009000 0.656000
19.403000 5.042000 1.320000
19.636000 5.008000 -0.313000
19.514000 5.037000 0.345000
19.375000 5.061000 0.985000
19.518000 5.045000 0.024000
19.389000 5.071000 0.652000
19.243000 5.101000 1.311000
19.481001 5.069000 -0.310000
19.361000 5.098000 0.343000
19.219999 5.120000 0.979000
19.368999 5.107000 0.025000
19.240000 5.132000 0.648000
19.087999 5.159000 1.303000
19.327000 5.127000 -0.308000
19.224001 5.161000 0.341000
19.073000 5.180000 0.973000
19.216000 5.166000 0.024000
19.080000 5.188000 0.644000
19.034000 5.245000 1.302000
19.181000 5.187000 -0.306000
19.068001 5.218000 0.340000
18.978001 5.254000 0.970000
19.066999 5.223000 0.024000
18.969999 5.257000 0.642000
19.062000 5.353000 1.305000
19.028999 5.244000 -0.304000
18.938999 5.281000 0.337000
19.037001 5.369000 0.974000
18.927000 5.283000 0.025000
18.978001 5.358000 0.642000
19.097000 5.462000 1.309000
18.898001 5.305000 -0.302000
18.929001 5.376000 0.338000
19.066999 5.478000 0.978000
18.896000 5.373000 0.024000
19.028000 5.471000 0.645000
19.143999 5.577000 1.315000
18.865999 5.394000 -0.302000
18.989000 5.491000 0.339000
19.118000 5.593000 0.981000
18.945000 5.484000 0.024000
19.066000 5.581000 0.648000
19.202999 5.696000 1.320000
18.917999 5.506000 -0.304000
19.037001 5.604000 0.341000
19.162001 5.706000 0.984000
18.996000 5.598000 0.025000
19.105000 5.693000 0.649000
19.238001 5.807000 1.324000
18.964001 5.618000 -0.305000
19.080000 5.717000 0.341000
19.211000 5.820000 0.988000
19.045000 5.712000 0.024000
19.152000 5.807000 0.651000
19.288000 5.924000 1.330000
19.011999 5.731000 -0.307000
19.122000 5.829000 0.342000
19.247000 5.933000 0.992000
19.082001 5.821000 0.024000
19.201000 5.922000 0.654000
19.320999 6.037000 1.333000
19.056999 5.843000 -0.308000
19.160999 5.941000 0.344000
19.291000 6.049000 0.994000
19.127001 5.934000 0.023000
19.250000 6.039000 0.656000
22.542000 7.162000 1.557000
19.093000 5.954000 -0.309000
19.212000 6.058000 0.344000
23.197001 7.395000 1.197000
19.173000 6.050000 0.023000
19.311001 6.159000 0.658000
22.834999 7.377000 1.580000
19.143000 6.070000 -0.312000
19.257000 6.173000 0.345000
22.400999 7.260000 1.157000
19.231001 6.168000 0.022000
23.047001 7.472000 0.786000
22.886999 7.516000 1.584000
19.179001 6.181000 -0.314000
23.004000 7.495000 0.412000
22.209999 7.317000 1.148000
23.033001 7.508000 0.026000
22.881001 7.540000 0.780000
22.695999 7.573000 1.572000
22.885000 7.495000 -0.375000
22.879000 7.575000 0.408000
22.288000 7.460000 1.152000
22.912001 7.589000 0.025000
22.174999 7.424000 0.756000
22.570000 7.651000 1.565000
22.674000 7.546000 -0.374000
22.667999 7.624000 0.404000
22.533001 7.662000 1.166000
22.704000 7.640000 0.023000
21.948000 7.463000 0.748000
22.372000 7.705000 1.552000
22.507000 7.608000 -0.374000
22.559999 7.707000 0.402000
22.389000 7.733000 1.158000
22.569000 7.713000 0.021000
21.775000 7.520000 0.743000
22.243999 7.779000 1.544000
22.364000 7.676000 -0.374000
22.177999 7.694000 0.393000
22.200001 7.785000 1.149000
22.389000 7.769000 0.020000
22.086000 7.746000 0.752000
22.049999 7.828000 1.532000
22.201000 7.739000 -0.373000
21.617001 7.613000 0.382000
22.090000 7.864000 1.144000
22.271000 7.847000 0.017000
22.076000 7.859000 0.751000
21.927999 7.905000 1.524000
22.077000 7.811000 -0.374000
21.407000 7.652000 0.377000
21.916000 7.920000 1.134000
22.066999 7.891000 0.015000
21.874001 7.903000 0.744000
21.775000 7.965000 1.513000
21.961000 7.885000 -0.375000
21.513000 7.806000 0.377000
21.785999 7.989000 1.127000
21.299999 7.730000 0.013000
21.736000 7.970000 0.737000
21.653000 8.043000 1.505000
21.874001 7.976000 -0.376000
21.761000 8.016000 0.381000
21.608000 8.050000 1.117000
21.142000 7.796000 0.009000
21.514000 8.021000 0.728000
21.414000 8.086000 1.489000
21.629999 8.025000 -0.375000
21.577000 8.092000 0.374000
21.445000 8.133000 1.108000
21.070999 7.915000 0.006000
21.261999 8.074000 0.718000
21.250000 8.174000 1.477000
20.914000 7.904000 -0.368000
21.400999 8.176000 0.368000
21.256001 8.210000 1.097000
21.365000 8.173000 0.003000
21.080000 8.150000 0.710000
21.083000 8.257000 1.464000
20.695000 7.964000 -0.369000
21.208000 8.248000 0.362000
21.021999 8.267000 1.083000
21.195000 8.256000 -0.001000
20.934999 8.241000 0.702000
20.889999 8.328000 1.451000
21.009001 8.229000 -0.379000
20.995001 8.311000 0.354000
19.240999 7.701000 0.989000
21.028000 8.336000 -0.006000
19.268999 7.719000 0.643000
19.112000 7.754000 1.325000
19.346001 7.713000 -0.354000
19.229000 7.747000 0.321000
19.091000 7.775000 0.980000
19.225000 7.754000 -0.010000
19.089001 7.780000 0.634000
18.958000 7.824000 1.313000
19.202000 7.788000 -0.357000
19.063000 7.812000 0.314000
18.930000 7.843000 0.968000
19.066999 7.824000 -0.014000
18.931000 7.849000 0.625000
19.136000 8.033000 1.324000
19.030001 7.850000 -0.360000
19.150000 7.981000 0.311000
19.177000 8.079000 0.978000
19.240999 8.029000 -0.020000
19.216999 8.102000 0.631000
19.208000 8.199000 1.326000
19.297001 8.096000 -0.372000
19.261999 8.164000 0.308000
19.259001 8.249000 0.979000
19.311001 8.192000 -0.026000
19.271000 8.259000 0.628000
19.260000 8.357000 1.327000
19.351000 8.253000 -0.379000
19.337999 8.331000 0.304000
19.320000 8.412000 0.978000
19.393999 8.364000 -0.032000
19.343000 8.427000 0.626000
19.347000 8.531000 1.330000
19.431000 8.422000 -0.388000
19.393000 8.489000 0.299000
19.396999 8.581000 0.977000
19.445000 8.522000 -0.039000
19.417000 8.595000 0.623000
19.388000 8.687000 1.328000
19.503000 8.591000 -0.398000
19.483000 8.667000 0.294000
19.372000 8.706000 0.971000
19.514000 8.687000 -0.047000
19.382999 8.715000 0.616000
19.236000 8.754000 1.314000
19.479000 8.716000 -0.406000
19.347000 8.742000 0.285000
19.459999 8.884000 0.970000
19.357000 8.754000 -0.054000
19.367001 8.845000 0.609000
19.320000 8.928000 1.315000
19.597000 8.905000 -0.417000
19.212000 8.815000 0.276000
19.355000 8.972000 0.959000
19.412001 8.915000 -0.063000
19.181999 8.895000 0.596000
19.212000 9.016000 1.302000
19.422001 8.964000 -0.423000
19.302999 8.993000 0.269000
19.153000 9.012000 0.943000
19.343000 9.018000 -0.071000
19.014000 8.950000 0.584000
19.017000 9.058000 1.283000
19.270000 9.028000 -0.429000
19.174999 9.067000 0.259000
19.025000 9.087000 0.930000
19.145000 9.061000 -0.080000
18.891001 9.026000 0.571000
18.892000 9.131000 1.269000
19.134001 9.098000 -0.437000
18.993999 9.115000 0.248000
18.850000 9.136000 0.914000
19.035000 9.142000 -0.089000
18.764000 9.097000 0.560000
18.716999 9.180000 1.251000
18.959999 9.150000 -0.444000
18.882000 9.194000 0.236000
18.721001 9.205000 0.900000
18.846001 9.183000 -0.098000
18.622000 9.158000 0.547000
18.582001 9.244000 1.234000
18.849001 9.227000 -0.452000
18.695000 9.234000 0.225000
18.600000 9.277000 0.886000
18.716000 9.252000 -0.109000
18.450001 9.204000 0.532000
18.459999 9.313000 1.219000
18.670000 9.270000 -0.460000
18.587999 9.311000 0.213000
18.424999 9.318000 0.869000
18.591000 9.320000 -0.119000
18.322001 9.268000 0.519000
18.281000 9.353000 1.198000
18.538000 9.336000 -0.469000
18.434000 9.363000 0.200000
18.290001 9.378000 0.853000
18.415001 9.359000 -0.130000
18.184999 9.325000 0.506000
18.181999 9.429000 1.183000
18.412001 9.400000 -0.479000
18.275999 9.411000 0.187000
18.159000 9.439000 0.837000
18.298000 9.429000 -0.141000
18.033001 9.373000 0.491000
18.045000 9.483000 1.165000
18.245001 9.442000 -0.488000
18.174999 9.486000 0.174000
18.000000 9.482000 0.819000
18.167000 9.488000 -0.153000
17.923000 9.442000 0.476000
17.874001 9.520000 1.144000
18.122000 9.505000 -0.500000
18.018999 9.529000 0.161000
17.896999 9.551000 0.804000
17.993999 9.523000 -0.165000
17.774000 9.486000 0.460000
17.777000 9.592000 1.127000
18.007000 9.571000 -0.510000
17.861000 9.571000 0.146000
17.791000 9.619000 0.787000
17.896999 9.596000 -0.179000
17.632000 9.532000 0.444000
17.652000 9.646000 1.108000
17.836000 9.603000 -0.520000
17.742001 9.629000 0.132000
17.615000 9.645000 0.767000
17.768000 9.650000 -0.192000
17.503000 9.585000 0.428000
17.539000 9.706000 1.090000
17.719999 9.665000 -0.534000
17.643999 9.697000 0.117000
17.504000 9.705000 0.750000
17.645000 9.704000 -0.205000
17.405001 9.650000 0.412000
17.375999 9.735000 1.067000
17.608999 9.726000 -0.545000
17.518999 9.751000 0.101000
17.400999 9.769000 0.732000
17.493000 9.741000 -0.220000
17.295000 9.707000 0.395000
17.268999 9.793000 1.048000
17.493999 9.783000 -0.559000
17.351999 9.776000 0.085000
17.281000 9.818000 0.713000
17.365999 9.790000 -0.234000
17.187000 9.765000 0.378000
17.139999 9.837000 1.026000
17.346001 9.819000 -0.572000
17.242001 9.831000 0.069000
17.159000 9.865000 0.694000
17.268000 9.852000 -0.249000
17.058001 9.807000 0.360000
17.038000 9.894000 1.006000
17.209999 9.861000 -0.585000
17.131001 9.885000 0.051000
17.048000 9.917000 0.673000
17.149000 9.902000 -0.266000
16.950001 9.858000 0.341000
16.931000 9.945000 0.986000
17.096001 9.911000 -0.599000
17.025000 9.938000 0.034000
16.910000 9.950000 0.653000
17.045000 9.957000 -0.282000
16.857000 9.919000 0.323000
16.830999 9.999000 0.963000
16.979000 9.959000 -0.616000
16.899000 9.977000 0.016000
16.802999 9.999000 0.633000
16.940001 10.009000 -0.299000
16.740000 9.961000 0.303000
16.723000 10.046000 0.942000
16.892000 10.022000 -0.631000
16.795000 10.029000 -0.001000
16.695999 10.046000 0.610000
16.802999 10.041000 -0.316000
16.670000 10.029000 0.284000
16.614000 10.089000 0.920000
16.749001 10.048000 -0.646000
16.718000 10.094000 -0.020000
16.569000 10.078000 0.589000
16.684000 10.080000 -0.333000
16.584000 10.087000 0.264000
16.504000 10.130000 0.895000
16.677000 10.117000 -0.666000
16.596001 10.128000 -0.040000
16.476000 10.128000 0.568000
16.555000 10.111000 -0.351000
16.487000 10.135000 0.244000
16.391001 10.166000 0.872000
16.551001 10.150000 -0.681000
16.475000 10.162000 -0.060000
16.379000 10.174000 0.544000
16.452000 10.155000 -0.371000
16.395000 10.183000 0.222000
16.311001 10.220000 0.850000
16.457001 10.199000 -0.699000
16.385000 10.212000 -0.080000
16.283001 10.219000 0.523000
16.375999 10.214000 -0.390000
16.288000 10.221000 0.200000
16.202000 10.254000 0.824000
16.343000 10.235000 -0.718000
16.294001 10.259000 -0.101000
16.165001 10.245000 0.499000
16.264999 10.249000 -0.409000
16.195999 10.265000 0.178000
16.129999 10.308000 0.801000
16.245001 10.278000 -0.736000
16.169001 10.283000 -0.123000
16.089001 10.298000 0.475000
16.174999 10.295000 -0.431000
16.070000 10.285000 0.156000
16.007999 10.328000 0.775000
16.134001 10.310000 -0.755000
16.077000 10.325000 -0.144000
16.003000 10.340000 0.452000
16.063999 10.325000 -0.451000
15.981000 10.326000 0.131000
15.915000 10.365000 0.748000
16.042999 10.353000 -0.776000
15.988000 10.365000 -0.166000
15.922000 10.383000 0.428000
16.000000 10.382000 -0.473000
15.916000 10.381000 0.109000
15.812000 10.391000 0.722000
15.948000 10.390000 -0.797000
15.891000 10.399000 -0.190000
15.825000 10.414000 0.401000
15.906000 10.418000 -0.496000
15.848000 10.430000 0.085000
15.247000 10.109000 0.675000
15.357000 10.100000 -0.791000
15.305000 10.107000 -0.206000
15.234000 10.115000 0.365000
15.302000 10.114000 -0.501000
15.232000 10.114000 0.057000
15.152000 10.133000 0.648000
15.266000 10.132000 -0.813000
15.218000 10.139000 -0.229000
15.157000 10.150000 0.340000
15.219000 10.149000 -0.523000
15.218000 10.193000 0.034000
15.233000 10.272000 0.629000
15.388000 10.304000 -0.846000
15.324000 10.298000 -0.256000
15.288000 10.324000 0.318000
15.373000 10.342000 -0.555000
15.329000 10.353000 0.010000
15.292000 10.396000 0.608000
15.398000 10.401000 -0.873000
15.355000 10.406000 -0.282000
15.289000 10.409000 0.294000
15.357000 10.418000 -0.581000
15.297000 10.417000 -0.016000
15.396000 10.550000 0.586000
15.516000 10.570000 -0.909000
15.473000 10.571000 -0.311000
15.314000 10.508000 0.269000
15.481000 10.588000 -0.612000
15.437000 10.595000 -0.042000
15.338000 10.590000 0.559000
15.427000 10.596000 -0.932000
15.379000 10.591000 -0.337000
15.221000 10.524000 0.240000
15.399000 10.616000 -0.637000
15.347000 10.614000 -0.068000
15.299000 10.641000 0.532000
15.316000 10.604000 -0.953000
15.338000 10.644000 -0.363000
15.160000 10.559000 0.213000
15.299000 10.629000 -0.663000
15.246000 10.623000 -0.096000
15.197000 10.645000 0.500000
15.218000 10.617000 -0.976000
15.250000 10.661000 -0.389000
15.154000 10.630000 0.186000
15.239000 10.667000 -0.688000
15.219000 10.680000 -0.124000
15.124000 10.667000 0.471000
15.111000 10.623000 -1.001000
15.172000 10.683000 -0.417000
15.109000 10.671000 0.157000
15.193000 10.711000 -0.716000
15.142000 10.699000 -0.151000
15.089000 10.712000 0.443000
15.023000 10.638000 -1.024000
15.123000 10.723000 -0.445000
15.080000 10.720000 0.128000
15.104000 10.723000 -0.743000
15.059000 10.712000 -0.181000
15.006000 10.720000 0.411000
14.947000 10.657000 -1.050000
15.063000 10.751000 -0.473000
15.029000 10.752000 0.099000
15.046000 10.754000 -0.770000
15.036000 10.763000 -0.209000
14.983000 10.768000 0.382000
14.927000 10.715000 -1.081000
14.979000 10.759000 -0.502000
14.948000 10.759000 0.068000
14.995000 10.786000 -0.798000
14.949000 10.766000 -0.238000
14.902000 10.771000 0.351000
14.895000 10.762000 -1.109000
14.954000 10.807000 -0.532000
14.913000 10.795000 0.038000
14.921000 10.800000 -0.827000
14.923000 10.810000 -0.269000
14.877000 10.813000 0.320000
14.892000 10.827000 -1.142000
14.866000 10.806000 -0.559000
14.829000 10.793000 0.009000
14.887000 10.839000 -0.856000
14.844000 10.812000 -0.299000
14.787000 10.802000 0.288000
14.818000 10.837000 -1.170000
14.844000 10.850000 -0.591000
14.812000 10.837000 -0.023000
14.803000 10.838000 -0.884000
14.819000 10.850000 -0.329000
14.710000 10.798000 0.257000
14.803000 10.888000 -1.201000
14.769000 10.852000 -0.620000
14.737000 10.834000 -0.054000
14.787000 10.885000 -0.917000
14.749000 10.853000 -0.360000
14.618000 10.780000 0.223000
14.730000 10.892000 -1.228000
14.747000 10.890000 -0.650000
14.722000 10.873000 -0.084000
14.711000 10.883000 -0.944000
14.734000 10.893000 -0.392000
14.563000 10.785000 0.191000
14.698000 10.924000 -1.261000
14.676000 10.889000 -0.681000
14.691000 10.897000 -0.117000
14.690000 10.920000 -0.976000
14.661000 10.886000 -0.422000
14.558000 10.825000 0.160000
14.103000 10.533000 -1.243000
14.661000 10.925000 -0.714000
14.638000 10.901000 -0.149000
14.602000 10.903000 -1.005000
14.642000 10.917000 -0.455000
14.576000 10.877000 0.127000
14.152000 10.616000 -1.279000
14.624000 10.943000 -0.745000
14.615000 10.924000 -0.181000
14.417000 10.809000 -1.026000
14.614000 10.937000 -0.488000
14.586000 10.921000 0.094000
14.180000 10.683000 -1.317000
14.580000 10.951000 -0.777000
14.587000 10.940000 -0.215000
14.065000 10.587000 -1.033000
14.560000 10.934000 -0.518000
14.571000 10.944000 0.062000
14.463000 10.939000 -1.378000
14.566000 10.978000 -0.811000
14.535000 10.934000 -0.247000
14.009000 10.582000 -1.063000
14.548000 10.960000 -0.553000
14.506000 10.924000 0.027000
14.491000 11.000000 -1.415000
14.524000 10.982000 -0.842000
14.519000 10.953000 -0.280000
13.982000 10.596000 -1.095000
14.531000 10.978000 -0.586000
14.504000 10.949000 -0.005000
14.450000 11.005000 -1.448000
14.472000 10.974000 -0.874000
14.510000 10.972000 -0.315000
13.994000 10.637000 -1.129000
14.477000 10.965000 -0.617000
14.494000 10.964000 -0.037000
14.425000 11.019000 -1.480000
14.463000 10.995000 -0.908000
14.497000 10.986000 -0.348000
14.001000 10.670000 -1.164000
14.447000 10.966000 -0.651000
14.490000 10.981000 -0.073000
14.418000 11.043000 -1.514000
14.451000 11.010000 -0.941000
14.447000 10.967000 -0.381000
14.027000 10.714000 -1.200000
14.450000 10.990000 -0.686000
14.472000 10.983000 -0.106000
14.408000 11.062000 -1.550000
14.397000 10.990000 -0.973000
14.430000 10.971000 -0.415000
14.053000 10.755000 -1.236000
14.450000 11.006000 -0.719000
14.431000 10.964000 -0.140000
14.375000 11.059000 -1.582000
14.239000 10.887000 -0.997000
14.433000 10.986000 -0.449000
14.169000 10.863000 -1.282000
14.439000 11.012000 -0.755000
14.418000 10.963000 -0.174000
9.576000 7.379000 -1.077000
14.060000 10.764000 -1.018000
14.428000 10.991000 -0.483000
14.333000 11.003000 -1.332000
14.434000 11.018000 -0.789000
14.414000 10.965000 -0.208000
9.586000 7.397000 -1.103000
14.031000 10.751000 -1.051000
14.423000 10.993000 -0.518000
14.399000 11.065000 -1.372000
14.428000 11.020000 -0.822000
14.413000 10.966000 -0.243000
9.562000 7.387000 -1.124000
14.021000 10.750000 -1.084000
14.429000 11.000000 -0.552000
14.399000 11.073000 -1.409000
14.421000 11.017000 -0.857000
14.429000 10.976000 -0.278000
9.558000 7.389000 -1.146000
14.002000 10.739000 -1.116000
14.430000 10.999000 -0.587000
14.384000 11.066000 -1.442000
14.424000 11.019000 -0.892000
14.436000 10.976000 -0.312000
9.540000 7.379000 -1.169000
14.001000 10.738000 -1.150000
14.433000 10.996000 -0.621000
14.386000 11.067000 -1.476000
14.431000 11.020000 -0.927000
14.437000 10.967000 -0.346000
9.535000 7.375000 -1.191000
13.999000 10.731000 -1.183000
14.446000 10.997000 -0.656000
14.393000 11.069000 -1.513000
14.432000 11.013000 -0.961000
14.463000 10.974000 -0.379000
9.532000 7.371000 -1.213000
14.029000 10.747000 -1.219000
14.450000 10.987000 -0.690000
14.404000 11.070000 -1.548000
14.418000 10.991000 -0.994000
14.490000 10.979000 -0.415000
9.532000 7.366000 -1.237000
14.050000 10.752000 -1.255000
14.453000 10.973000 -0.723000
14.408000 11.063000 -1.582000
14.289000 10.877000 -1.019000
14.523000 10.984000 -0.450000
9.528000 7.356000 -1.260000
14.090000 10.768000 -1.291000
14.483000 10.976000 -0.759000
9.648000 7.399000 -1.083000
14.018000 10.652000 -1.032000
14.539000 10.972000 -0.483000
9.547000 7.361000 -1.284000
14.223000 10.852000 -1.336000
14.528000 10.988000 -0.795000
9.604000 7.353000 -1.100000
13.985000 10.606000 -1.062000
14.544000 10.949000 -0.517000
9.576000 7.372000 -1.311000
14.445000 10.998000 -1.391000
14.562000 10.986000 -0.829000
9.605000 7.340000 -1.123000
13.994000 10.588000 -1.094000
14.566000 10.936000 -0.551000
9.602000 7.378000 -1.337000
14.504000 11.018000 -1.429000
14.577000 10.967000 -0.864000
9.617000 7.332000 -1.146000
14.001000 10.564000 -1.126000
14.616000 10.940000 -0.585000
9.618000 7.374000 -1.361000
14.505000 10.989000 -1.462000
14.584000 10.940000 -0.897000
9.683000 7.363000 -1.176000
14.020000 10.548000 -1.159000
14.649000 10.926000 -0.619000
9.610000 7.348000 -1.382000
14.533000 10.977000 -1.497000
14.639000 10.944000 -0.931000
9.708000 7.360000 -1.200000
14.023000 10.515000 -1.190000
14.669000 10.902000 -0.652000
9.637000 7.348000 -1.407000
14.588000 10.981000 -1.534000
14.687000 10.939000 -0.967000
14.532000 10.982000 -1.829000
14.138000 10.563000 -1.230000
14.716000 10.892000 -0.685000
9.662000 7.342000 -1.431000
14.626000 10.971000 -1.569000
14.687000 10.895000 -0.998000
14.515000 10.929000 -1.857000
14.696000 10.936000 -1.310000
14.763000 10.880000 -0.720000
9.682000 7.331000 -1.455000
14.644000 10.940000 -1.602000
14.668000 10.834000 -1.027000
14.544000 10.909000 -1.891000
14.724000 10.911000 -1.343000
14.792000 10.851000 -0.751000
9.702000 7.318000 -1.479000
14.723000 10.953000 -1.641000
14.674000 10.788000 -1.058000
14.589000 10.897000 -1.927000
14.774000 10.898000 -1.378000
14.858000 10.846000 -0.785000
9.720000 7.301000 -1.501000
14.743000 10.918000 -1.673000
14.757000 10.796000 -1.094000
14.650000 10.893000 -1.965000
14.831000 10.887000 -1.413000
14.891000 10.813000 -0.817000
9.734000 7.278000 -1.523000
14.791000 10.899000 -1.708000
14.876000 10.827000 -1.132000
16.302000 12.063000 -2.218000
14.856000 10.849000 -1.444000
14.977000 10.816000 -0.851000
9.780000 7.277000 -1.549000
14.849000 10.886000 -1.743000
14.920000 10.798000 -1.164000
16.059999 11.822000 -2.216000
14.926000 10.840000 -1.479000
15.008000 10.776000 -0.882000
14.607000 10.813000 -2.341000
14.877000 10.847000 -1.774000
15.012000 10.802000 -1.200000
15.972000 11.693000 -2.234000
14.971000 10.811000 -1.512000
15.095000 10.771000 -0.915000
14.497000 10.672000 -2.350000
14.922000 10.816000 -1.808000
15.042000 10.759000 -1.230000
15.873000 11.554000 -2.248000
15.051000 10.803000 -1.547000
15.118000 10.720000 -0.944000
14.399000 10.539000 -2.360000
14.905000 10.739000 -1.832000
15.145000 10.763000 -1.266000
15.692000 11.354000 -2.251000
15.099000 10.769000 -1.580000
15.159000 10.678000 -0.974000
14.313000 10.413000 -2.371000
14.981000 10.726000 -1.867000
15.208000 10.736000 -1.297000
15.550000 11.180000 -2.257000
15.178000 10.754000 -1.613000
15.134000 10.586000 -0.999000
14.224000 10.283000 -2.380000
15.064000 10.713000 -1.904000
15.248000 10.690000 -1.327000
15.407000 11.004000 -2.261000
15.253000 10.732000 -1.646000
15.240000 10.584000 -1.031000
14.125000 10.144000 -2.387000
15.116000 10.675000 -1.934000
15.336000 10.674000 -1.360000
15.305000 10.855000 -2.271000
15.296000 10.685000 -1.677000
15.388000 10.608000 -1.067000
14.038000 10.011000 -2.393000
14.579000 10.222000 -1.888000
15.373000 10.620000 -1.388000
15.207000 10.708000 -2.280000
15.378000 10.662000 -1.709000
15.487000 10.593000 -1.099000
13.960000 9.883000 -2.402000
14.554000 10.129000 -1.908000
14.574000 9.991000 -1.338000
14.644000 10.235000 -2.217000
14.586000 10.036000 -1.643000
15.479000 10.504000 -1.122000
13.880000 9.753000 -2.408000
14.524000 10.029000 -1.925000
14.527000 9.878000 -1.356000
14.667000 10.172000 -2.243000
14.543000 9.927000 -1.660000
15.434000 10.388000 -1.142000
13.810000 9.629000 -2.415000
14.497000 9.931000 -1.942000
14.505000 9.783000 -1.375000
14.655000 10.082000 -2.260000
14.587000 9.874000 -1.685000
15.390000 10.270000 -1.161000
13.745000 9.506000 -2.423000
14.456000 9.821000 -1.957000
14.438000 9.655000 -1.388000
14.608000 9.967000 -2.272000
14.548000 9.765000 -1.700000
15.321000 10.135000 -1.177000
13.671000 9.376000 -2.426000
14.419000 9.712000 -1.970000
14.404000 9.548000 -1.405000
14.558000 9.848000 -2.284000
14.489000 9.641000 -1.712000
15.580000 10.215000 -1.218000
13.621000 9.262000 -2.434000
14.384000 9.603000 -1.983000
14.360000 9.434000 -1.419000
14.511000 9.729000 -2.293000
14.394000 9.491000 -1.719000
15.976000 10.378000 -1.270000
13.558000 9.137000 -2.439000
14.357000 9.500000 -1.997000
14.407000 9.377000 -1.442000
14.472000 9.616000 -2.304000
14.373000 9.390000 -1.734000
14.931000 9.608000 -1.206000
13.503000 9.017000 -2.444000
14.321000 9.387000 -2.008000
14.494000 9.345000 -1.469000
14.417000 9.490000 -2.312000
14.411000 9.326000 -1.755000
14.937000 9.519000 -1.224000
13.450000 8.898000 -2.448000
14.351000 9.317000 -2.028000
14.613000 9.330000 -1.497000
14.342000 9.351000 -2.315000
14.491000 9.286000 -1.781000
14.869000 9.381000 -1.237000
13.399000 8.779000 -2.453000
14.469000 9.303000 -2.060000
14.681000 9.280000 -1.520000
14.462000 9.337000 -2.348000
14.572000 9.246000 -1.806000
14.866000 9.285000 -1.252000
13.346000 8.658000 -2.455000
14.577000 9.278000 -2.090000
14.761000 9.236000 -1.545000
14.425000 9.220000 -2.357000
14.674000 9.216000 -1.833000
14.910000 9.216000 -1.272000
13.308000 8.547000 -2.460000
15.605000 9.831000 -2.252000
14.874000 9.210000 -1.571000
14.362000 9.085000 -2.358000
14.784000 9.187000 -1.861000
15.007000 9.178000 -1.296000
13.268000 8.432000 -2.464000
15.586000 9.716000 -2.263000
14.967000 9.169000 -1.595000
14.312000 8.959000 -2.362000
14.886000 9.153000 -1.887000
15.091000 9.130000 -1.317000
13.232000 8.320000 -2.467000
15.523000 9.572000 -2.267000
15.133000 9.170000 -1.627000
14.266000 8.833000 -2.367000
14.979000 9.111000 -1.912000
15.209000 9.100000 -1.342000
13.189000 8.204000 -2.469000
15.030000 9.168000 -2.207000
15.249000 9.138000 -1.652000
14.235000 8.717000 -2.371000
15.102000 9.084000 -1.941000
15.313000 9.059000 -1.365000
13.167000 8.099000 -2.474000
15.153000 9.140000 -2.237000
15.274000 9.050000 -1.667000
14.182000 8.588000 -2.372000
15.210000 9.045000 -1.966000
15.418000 9.016000 -1.387000
13.126000 7.983000 -2.474000
15.277000 9.109000 -2.267000
15.369000 9.002000 -1.690000
14.156000 8.474000 -2.378000
15.334000 9.013000 -1.993000
17.167000 9.923000 -1.558000
13.116000 7.885000 -2.480000
15.319000 9.028000 -2.282000
15.471000 8.955000 -1.712000
14.116000 8.351000 -2.379000
15.470000 8.986000 -2.022000
17.268000 9.862000 -1.581000
13.084000 7.773000 -2.481000
15.282000 8.900000 -2.286000
15.535000 8.884000 -1.730000
14.081000 8.232000 -2.381000
15.557000 8.928000 -2.042000
17.370001 9.800000 -1.602000
13.066000 7.669000 -2.484000
15.268000 8.784000 -2.293000
18.280001 10.327000 -2.048000
14.052000 8.115000 -2.384000
16.612000 9.418000 -2.190000
17.454000 9.727000 -1.621000
13.046000 7.565000 -2.486000
15.215000 8.646000 -2.293000
18.186001 10.146000 -2.048000
14.025000 8.000000 -2.386000
16.566000 9.275000 -2.194000
17.565001 9.666000 -1.643000
13.031000 7.461000 -2.488000
15.188000 8.523000 -2.296000
18.108999 9.977000 -2.049000
14.005000 7.888000 -2.388000
16.516001 9.129000 -2.195000
17.736000 9.635000 -1.669000
13.011000 7.356000 -2.489000
15.153000 8.394000 -2.298000
18.098000 9.842000 -2.059000
13.995000 7.781000 -2.392000
16.482000 8.994000 -2.198000
17.833000 9.563000 -1.688000
13.001000 7.255000 -2.491000
15.142000 8.279000 -2.302000
18.052999 9.689000 -2.061000
13.965000 7.664000 -2.392000
16.445000 8.856000 -2.201000
19.820999 10.488000 -1.888000
13.002000 7.160000 -2.495000
15.101000 8.149000 -2.301000
18.011999 9.540000 -2.065000
13.932000 7.545000 -2.390000
16.426001 8.728000 -2.204000
19.826000 10.350000 -1.896000
12.980000 7.053000 -2.494000
15.074000 8.025000 -2.303000
17.968000 9.388000 -2.068000
13.935000 7.444000 -2.395000
16.417000 8.606000 -2.209000
19.785000 10.189000 -1.901000
12.967000 6.950000 -2.494000
15.048000 7.901000 -2.302000
17.940001 9.245000 -2.071000
13.925000 7.337000 -2.397000
16.395000 8.475000 -2.212000
19.840000 10.075000 -1.916000
12.964000 6.852000 -2.496000
15.022000 7.779000 -2.302000
17.906000 9.099000 -2.073000
13.910000 7.227000 -2.396000
16.351000 8.334000 -2.210000
19.782000 9.905000 -1.918000
12.961000 6.755000 -2.497000
14.998000 7.657000 -2.303000
17.903000 8.968000 -2.080000
13.911000 7.125000 -2.399000
16.348000 8.215000 -2.214000
19.764000 9.754000 -1.922000
12.955000 6.656000 -2.496000
14.980000 7.538000 -2.303000
17.854000 8.816000 -2.079000
13.910000 7.023000 -2.401000
16.329000 8.087000 -2.216000
19.618999 9.542000 -1.915000
12.954000 6.558000 -2.498000
14.948000 7.414000 -2.300000
17.830999 8.676000 -2.080000
13.894000 6.912000 -2.399000
16.322001 7.964000 -2.218000
19.566999 9.377000 -1.916000
12.951000 6.461000 -2.498000
14.938000 7.299000 -2.301000
17.827999 8.545000 -2.084000
13.907000 6.815000 -2.403000
16.285000 7.828000 -2.215000
19.534000 9.221000 -1.917000
12.953000 6.364000 -2.497000
14.928000 7.184000 -2.301000
17.799999 8.404000 -2.085000
13.892000 6.705000 -2.401000
16.284000 7.709000 -2.218000
19.569000 9.096000 -1.926000
12.952000 6.268000 -2.497000
14.944000 7.083000 -2.304000
17.790001 8.270000 -2.086000
13.886000 6.599000 -2.400000
16.274000 7.586000 -2.219000
19.407000 8.882000 -1.913000
12.967000 6.178000 -2.500000
14.955000 6.978000 -2.308000
17.773001 8.134000 -2.088000
13.900000 6.504000 -2.402000
16.275000 7.468000 -2.220000
19.333000 8.709000 -1.909000
12.958000 6.076000 -2.496000
14.950000 6.866000 -2.307000
17.764000 8.002000 -2.089000
13.905000 6.403000 -2.403000
16.266001 7.345000 -2.220000
19.278999 8.546000 -1.907000
12.976000 5.988000 -2.499000
14.954000 6.758000 -2.307000
17.773001 7.877000 -2.090000
13.905000 6.300000 -2.402000
16.254999 7.222000 -2.220000
19.224001 8.384000 -1.905000
12.980000 5.892000 -2.499000
14.968000 6.654000 -2.310000
17.757999 7.741000 -2.091000
13.905000 6.197000 -2.401000
16.256001 7.104000 -2.219000
19.188999 8.231000 -1.902000
12.992000 5.801000 -2.498000
14.963000 6.542000 -2.309000
17.775999 7.622000 -2.094000
13.919000 6.100000 -2.402000
16.235001 6.976000 -2.217000
19.143999 8.074000 -1.900000
13.002000 5.708000 -2.498000
14.975000 6.438000 -2.309000
17.735001 7.476000 -2.089000
13.941000 6.006000 -2.404000
16.198000 6.843000 -2.212000
19.065001 7.905000 -1.894000
12.998000 5.609000 -2.495000
14.986000 6.332000 -2.310000
17.738001 7.348000 -2.090000
13.953000 5.909000 -2.404000
16.224001 6.736000 -2.214000
17.332001 7.062000 -1.722000
13.018000 5.521000 -2.497000
14.985000 6.223000 -2.308000
17.686001 7.200000 -2.084000
13.956000 5.807000 -2.403000
16.165001 6.594000 -2.205000
17.268000 6.912000 -1.717000
13.022000 5.425000 -2.494000
14.995000 6.117000 -2.307000
17.268999 6.906000 -2.034000
13.964000 5.707000 -2.402000
16.112000 6.456000 -2.197000
17.202999 6.763000 -1.710000
13.024000 5.329000 -2.492000
15.017000 6.016000 -2.310000
17.219999 6.762000 -2.028000
13.975000 5.609000 -2.401000
16.090000 6.331000 -2.192000
17.157000 6.623000 -1.705000
13.047000 5.242000 -2.493000
15.027000 5.910000 -2.309000
17.152000 6.613000 -2.019000
13.991000 5.512000 -2.401000
16.162001 6.241000 -2.201000
17.077000 6.470000 -1.698000
13.050000 5.146000 -2.490000
15.049000 5.809000 -2.309000
17.080999 6.462000 -2.009000
14.001000 5.414000 -2.400000
16.204000 6.141000 -2.204000
17.025000 6.330000 -1.692000
13.058000 5.051000 -2.488000
15.052000 5.700000 -2.308000
16.983000 6.304000 -1.997000
14.015000 5.316000 -2.399000
16.207001 6.025000 -2.202000
16.966999 6.188000 -1.685000
13.076000 4.962000 -2.488000
15.073000 5.599000 -2.308000
16.929001 6.163000 -1.989000
14.014000 5.213000 -2.396000
16.249001 5.924000 -2.206000
17.052999 6.103000 -1.693000
13.077000 4.869000 -2.484000
15.083000 5.497000 -2.307000
16.954000 6.055000 -1.990000
14.021000 5.117000 -2.394000
16.271999 5.820000 -2.206000
17.212000 6.042000 -1.707000
13.085000 4.779000 -2.482000
15.103000 5.399000 -2.307000
16.922001 5.928000 -1.984000
14.035000 5.023000 -2.392000
16.278000 5.709000 -2.204000
17.309999 5.959000 -1.716000
13.107000 4.694000 -2.482000
15.120000 5.301000 -2.306000
16.927000 5.815000 -1.982000
14.048000 4.930000 -2.391000
16.273001 5.596000 -2.201000
17.337999 5.850000 -1.717000
13.119000 4.606000 -2.480000
15.121000 5.196000 -2.302000
16.966000 5.712000 -1.985000
14.053000 4.833000 -2.388000
16.243999 5.474000 -2.194000
17.378000 5.747000 -1.719000
13.120000 4.514000 -2.476000
15.160000 5.105000 -2.305000
17.047001 5.623000 -1.992000
14.076000 4.743000 -2.388000
16.266001 5.370000 -2.194000
17.440001 5.650000 -1.724000
13.144000 4.429000 -2.476000
15.136000 4.992000 -2.298000
17.096001 5.523000 -1.995000
14.073000 4.643000 -2.384000
16.301001 5.269000 -2.196000
17.465000 5.540000 -1.724000
13.156000 4.341000 -2.474000
15.141000 4.889000 -2.296000
17.138000 5.420000 -1.997000
14.079000 4.547000 -2.381000
16.327000 5.167000 -2.195000
17.573999 5.455000 -1.733000
13.173000 4.254000 -2.473000
15.182000 4.797000 -2.298000
17.117001 5.298000 -1.991000
14.102000 4.458000 -2.380000
16.330999 5.057000 -2.193000
17.618000 5.350000 -1.735000
13.186000 4.165000 -2.471000
15.198000 4.698000 -2.296000
17.080000 5.171000 -1.985000
14.120000 4.366000 -2.380000
16.346001 4.950000 -2.192000
17.617001 5.233000 -1.732000
13.209000 4.081000 -2.471000
15.222000 4.602000 -2.296000
17.101000 5.062000 -1.984000
14.147000 4.276000 -2.380000
16.281000 4.819000 -2.180000
17.580000 5.104000 -1.726000
13.218000 3.992000 -2.468000
15.239000 4.502000 -2.295000
17.153000 4.961000 -1.987000
14.154000 4.180000 -2.377000
16.257999 4.702000 -2.173000
17.565001 4.982000 -1.722000
13.228000 3.902000 -2.466000
15.253000 4.402000 -2.293000
17.073000 4.823000 -1.975000
14.164000 4.085000 -2.375000
16.238001 4.586000 -2.167000
17.572001 4.866000 -1.720000
13.257000 3.819000 -2.466000
15.277000 4.304000 -2.293000
17.014000 4.692000 -1.965000
14.180000 3.992000 -2.373000
16.201000 4.466000 -2.158000
17.490000 4.727000 -1.710000
13.267000 3.729000 -2.464000
15.289000 4.203000 -2.291000
16.872999 4.540000 -1.945000
14.188000 3.898000 -2.370000
16.174999 4.350000 -2.151000
17.348000 4.573000 -1.693000
13.287000 3.643000 -2.463000
15.309000 4.106000 -2.290000
16.721001 4.388000 -1.924000
14.226000 3.811000 -2.372000
16.159000 4.237000 -2.145000
17.297001 4.445000 -1.685000
13.309000 3.558000 -2.463000
15.331000 4.008000 -2.289000
16.608999 4.247000 -1.908000
14.235000 3.716000 -2.370000
16.089001 4.110000 -2.132000
17.090000 4.279000 -1.663000
13.329000 3.472000 -2.462000
15.341000 3.906000 -2.286000
16.544001 4.120000 -1.898000
14.252000 3.623000 -2.368000
16.028999 3.987000 -2.121000
17.056000 4.158000 -1.656000
13.343000 3.383000 -2.460000
15.336000 3.801000 -2.282000
16.469999 3.992000 -1.886000
14.264000 3.529000 -2.366000
15.985000 3.869000 -2.111000
17.073999 4.049000 -1.655000
13.358000 3.295000 -2.458000
15.368000 3.705000 -2.283000
16.590000 3.910000 -1.897000
14.291000 3.439000 -2.366000
16.004999 3.768000 -2.110000
17.107000 3.944000 -1.656000
13.385000 3.210000 -2.459000
15.388000 3.606000 -2.282000
16.672001 3.821000 -1.903000
14.318000 3.349000 -2.367000
16.233999 3.713000 -2.137000
17.159000 3.843000 -1.658000
13.394000 3.121000 -2.456000
15.343000 3.494000 -2.271000
16.726999 3.722000 -1.906000
14.317000 3.252000 -2.362000
16.254000 3.609000 -2.136000
17.149000 3.729000 -1.655000
13.423000 3.037000 -2.457000
15.366000 3.396000 -2.271000
16.722000 3.610000 -1.902000
14.335000 3.159000 -2.361000
16.250000 3.500000 -2.132000
17.149000 3.617000 -1.652000
13.444000 2.949000 -2.457000
15.385000 3.297000 -2.270000
16.688000 3.493000 -1.895000
14.354000 3.066000 -2.361000
16.261000 3.394000 -2.130000
17.198000 3.514000 -1.654000
13.450000 2.859000 -2.454000
15.455000 3.208000 -2.276000
16.785999 3.402000 -1.903000
14.361000 2.970000 -2.358000
16.372000 3.309000 -2.141000
17.216000 3.405000 -1.653000
13.462000 2.770000 -2.452000
15.457000 3.105000 -2.273000
16.908001 3.316000 -1.914000
14.382000 2.879000 -2.358000
16.410000 3.209000 -2.143000
17.284000 3.305000 -1.657000
13.480000 2.682000 -2.452000
15.400000 2.992000 -2.262000
16.982000 3.220000 -1.920000
14.405000 2.787000 -2.358000
16.530001 3.123000 -2.155000
17.306999 3.197000 -1.657000
13.494000 2.595000 -2.450000
15.420000 2.893000 -2.261000
16.954000 3.103000 -1.914000
14.417000 2.693000 -2.356000
16.480000 3.004000 -2.145000
17.313999 3.086000 -1.655000
13.524000 2.509000 -2.452000
15.456000 2.797000 -2.263000
16.965000 2.994000 -1.912000
14.431000 2.598000 -2.355000
16.469999 2.894000 -2.141000
17.344999 2.979000 -1.655000
13.529000 2.419000 -2.449000
15.495000 2.701000 -2.265000
16.931000 2.877000 -1.906000
14.458000 2.506000 -2.356000
16.422001 2.777000 -2.132000
17.334000 2.864000 -1.652000
13.536000 2.329000 -2.447000
15.504000 2.600000 -2.263000
16.909000 2.763000 -1.900000
14.465000 2.412000 -2.354000
16.409000 2.668000 -2.127000
17.313999 2.748000 -1.648000
13.562000 2.242000 -2.448000
15.482000 2.494000 -2.257000
16.875000 2.647000 -1.894000
14.482000 2.319000 -2.353000
16.419001 2.562000 -2.126000
17.322001 2.637000 -1.646000
13.574000 2.153000 -2.448000
15.462000 2.390000 -2.251000
16.863001 2.536000 -1.890000
14.509000 2.226000 -2.355000
16.398001 2.451000 -2.120000
17.313999 2.524000 -1.644000
13.584000 2.064000 -2.446000
15.530000 2.297000 -2.258000
16.858999 2.426000 -1.888000
14.508000 2.129000 -2.352000
16.365999 2.339000 -2.113000
17.304001 2.412000 -1.641000
13.557000 1.969000 -2.438000
15.559000 2.199000 -2.260000
16.870001 2.317000 -1.887000
14.526000 2.035000 -2.352000
16.379000 2.233000 -2.113000
17.313999 2.301000 -1.640000
13.573000 1.880000 -2.438000
15.553000 2.095000 -2.256000
16.898001 2.211000 -1.888000
14.536000 1.940000 -2.351000
16.330999 2.120000 -2.105000
17.353001 2.194000 -1.642000
13.616000 1.795000 -2.443000
15.547000 1.992000 -2.253000
16.893999 2.102000 -1.886000
14.547000 1.846000 -2.350000
16.395000 2.022000 -2.110000
17.357000 2.083000 -1.641000
13.609000 1.703000 -2.439000
15.562000 1.892000 -2.253000
16.871000 1.990000 -1.881000
14.589000 1.755000 -2.355000
16.371000 1.912000 -2.105000
17.368999 1.973000 -1.640000
13.616000 1.614000 -2.439000
15.651000 1.801000 -2.264000
16.893000 1.883000 -1.882000
14.560000 1.655000 -2.348000
16.368000 1.805000 -2.103000
17.382999 1.863000 -1.640000
13.610000 1.523000 -2.435000
15.608000 1.693000 -2.256000
16.910000 1.775000 -1.882000
14.550000 1.558000 -2.344000
16.381001 1.700000 -2.103000
17.367001 1.749000 -1.637000
13.620000 1.433000 -2.435000
15.622000 1.592000 -2.256000
16.962000 1.671000 -1.886000
14.585000 1.465000 -2.348000
16.384001 1.593000 -2.102000
17.355000 1.636000 -1.635000
13.656000 1.346000 -2.439000
15.667000 1.494000 -2.261000
16.941999 1.559000 -1.883000
14.611000 1.372000 -2.351000
16.466000 1.494000 -2.111000
17.386999 1.528000 -1.637000
13.680000 1.257000 -2.442000
15.691000 1.394000 -2.263000
16.959999 1.452000 -1.884000
14.633000 1.277000 -2.353000
16.438000 1.386000 -2.106000
17.452999 1.421000 -1.642000
13.652000 1.164000 -2.436000
15.712000 1.293000 -2.265000
16.929001 1.340000 -1.879000
14.610000 1.179000 -2.348000
16.403000 1.276000 -2.101000
17.445999 1.309000 -1.641000
13.702000 1.077000 -2.443000
15.709000 1.190000 -2.263000
16.981001 1.235000 -1.884000
14.654000 1.086000 -2.354000
16.386000 1.168000 -2.098000
17.422001 1.196000 -1.638000
13.713000 0.987000 -2.444000
15.693000 1.086000 -2.260000
16.978001 1.125000 -1.884000
14.678000 0.991000 -2.357000
16.389000 1.061000 -2.097000
17.400000 1.083000 -1.636000
13.695000 0.895000 -2.440000
15.697000 0.984000 -2.260000
16.959000 1.014000 -1.881000
14.672000 0.894000 -2.355000
16.403000 0.956000 -2.099000
17.423000 0.972000 -1.638000
13.700000 0.804000 -2.440000
15.764000 0.885000 -2.269000
16.922001 0.903000 -1.877000
14.695000 0.799000 -2.358000
16.483000 0.853000 -2.109000
17.416000 0.860000 -1.637000
13.730000 0.715000 -2.445000
15.942000 0.791000 -2.294000
16.919001 0.793000 -1.876000
14.689000 0.703000 -2.357000
16.424999 0.744000 -2.101000
17.368999 0.747000 -1.633000
13.761000 0.625000 -2.450000
15.735000 0.677000 -2.264000
16.924000 0.685000 -1.877000
14.722000 0.607000 -2.362000
16.434999 0.638000 -2.103000
17.351999 0.634000 -1.632000
13.760000 0.534000 -2.449000
15.697000 0.574000 -2.258000
16.945999 0.576000 -1.880000
14.692000 0.509000 -2.357000
16.386999 0.529000 -2.097000
17.357000 0.524000 -1.632000
13.766000 0.443000 -2.451000
15.754000 0.473000 -2.267000
16.923000 0.466000 -1.878000
14.722000 0.413000 -2.362000
16.431999 0.424000 -2.103000
17.354000 0.412000 -1.633000
13.769000 0.352000 -2.452000
15.844000 0.371000 -2.280000
16.886999 0.356000 -1.874000
14.750000 0.317000 -2.367000
16.434999 0.317000 -2.104000
17.309000 0.300000 -1.629000
13.786000 0.260000 -2.455000
15.878000 0.269000 -2.286000
16.910000 0.247000 -1.878000
14.764000 0.219000 -2.370000
16.440001 0.210000 -2.106000
17.319000 0.189000 -1.631000
13.795000 0.169000 -2.457000
15.786000 0.164000 -2.274000
16.926001 0.138000 -1.881000
14.675000 0.122000 -2.357000
16.476999 0.104000 -2.111000
17.275000 0.077000 -1.628000
13.752000 0.077000 -2.451000
15.762000 0.061000 -2.271000
16.938999 0.029000 -1.883000
14.702000 0.025000 -2.362000
16.502001 -0.002000 -2.116000
17.263000 -0.033000 -1.629000
13.742000 -0.013000 -2.450000
15.803000 -0.042000 -2.279000
16.906000 -0.080000 -1.881000
14.743000 -0.072000 -2.370000
16.506001 -0.110000 -2.118000
17.240999 -0.143000 -1.628000
13.761000 -0.105000 -2.455000
16.004000 -0.148000 -2.309000
16.896999 -0.189000 -1.881000
14.712000 -0.168000 -2.367000
16.430000 -0.216000 -2.110000
17.240000 -0.254000 -1.630000
13.731000 -0.196000 -2.451000
15.650000 -0.247000 -2.260000
16.851000 -0.298000 -1.878000
14.668000 -0.265000 -2.362000
16.330000 -0.322000 -2.099000
17.261000 -0.366000 -1.634000
13.723000 -0.287000 -2.452000
15.619000 -0.349000 -2.257000
16.841999 -0.407000 -1.879000
14.658000 -0.362000 -2.362000
16.159000 -0.423000 -2.079000
17.281000 -0.478000 -1.638000
13.720000 -0.379000 -2.453000
15.571000 -0.451000 -2.253000
16.830000 -0.516000 -1.880000
14.640000 -0.458000 -2.361000
16.136999 -0.528000 -2.078000
17.260000 -0.589000 -1.638000
13.730000 -0.471000 -2.457000
15.589000 -0.553000 -2.258000
16.839001 -0.625000 -1.884000
14.668000 -0.557000 -2.368000
16.284000 -0.640000 -2.100000
17.266001 -0.701000 -1.641000
13.718000 -0.562000 -2.457000
15.571000 -0.656000 -2.258000
16.856001 -0.736000 -1.888000
14.660000 -0.654000 -2.369000
16.372000 -0.750000 -2.114000
17.284000 -0.813000 -1.646000
13.699000 -0.653000 -2.457000
15.624000 -0.761000 -2.268000
16.850000 -0.845000 -1.890000
14.641000 -0.750000 -2.369000
16.358999 -0.858000 -2.116000
17.264999 -0.924000 -1.647000
13.691000 -0.745000 -2.458000
15.693000 -0.868000 -2.281000
16.856001 -0.956000 -1.894000
14.648000 -0.848000 -2.374000
16.341000 -0.964000 -2.116000
17.264999 -1.036000 -1.650000
13.684000 -0.836000 -2.460000
15.818000 -0.980000 -2.303000
16.823000 -1.064000 -1.894000
14.615000 -0.944000 -2.372000
16.302999 -1.069000 -2.115000
17.280001 -1.150000 -1.655000
13.665000 -0.928000 -2.460000
15.714000 -1.078000 -2.291000
16.816000 -1.173000 -1.896000
14.582000 -1.039000 -2.370000
16.313000 -1.178000 -2.120000
17.259001 -1.261000 -1.656000
13.641000 -1.018000 -2.460000
15.626000 -1.175000 -2.282000
16.827999 -1.285000 -1.902000
14.604000 -1.139000 -2.377000
16.285000 -1.283000 -2.120000
17.281000 -1.375000 -1.662000
13.648000 -1.110000 -2.465000
15.602000 -1.277000 -2.283000
16.813000 -1.394000 -1.904000
14.584000 -1.235000 -2.378000
16.295000 -1.392000 -2.125000
17.284000 -1.489000 -1.666000
13.618000 -1.201000 -2.464000
15.749000 -1.394000 -2.309000
16.794001 -1.503000 -1.906000
14.527000 -1.328000 -2.373000
16.266001 -1.497000 -2.126000
17.292999 -1.603000 -1.671000
13.609000 -1.292000 -2.466000
15.794000 -1.504000 -2.320000
16.797001 -1.615000 -1.910000
14.542000 -1.428000 -2.380000
16.257999 -1.605000 -2.129000
17.266001 -1.713000 -1.673000
13.575000 -1.381000 -2.465000
15.682000 -1.599000 -2.308000
16.813000 -1.728000 -1.917000
14.526000 -1.524000 -2.382000
16.237000 -1.712000 -2.131000
17.304001 -1.831000 -1.681000
13.566000 -1.473000 -2.468000
15.637000 -1.700000 -2.306000
16.823999 -1.841000 -1.923000
14.504000 -1.621000 -2.384000
16.240000 -1.821000 -2.137000
17.313999 -1.947000 -1.687000
13.564000 -1.566000 -2.473000
15.588000 -1.799000 -2.304000
16.822001 -1.952000 -1.928000
14.507000 -1.720000 -2.389000
16.247999 -1.929000 -2.143000
17.325001 -2.063000 -1.693000
13.521000 -1.654000 -2.470000
15.567000 -1.902000 -2.307000
16.861000 -2.068000 -1.937000
14.412000 -1.805000 -2.379000
16.239000 -2.037000 -2.147000
17.304001 -2.175000 -1.696000
13.485000 -1.741000 -2.469000
15.530000 -2.002000 -2.307000
16.839001 -2.178000 -1.940000
14.452000 -1.909000 -2.391000
16.259001 -2.150000 -2.156000
17.311001 -2.290000 -1.702000
13.497000 -1.836000 -2.477000
15.484000 -2.101000 -2.306000
16.840000 -2.291000 -1.946000
14.429000 -2.005000 -2.394000
16.260000 -2.260000 -2.162000
17.292000 -2.403000 -1.705000
13.459000 -1.924000 -2.476000
15.472000 -2.205000 -2.310000
16.823999 -2.402000 -1.950000
14.383000 -2.098000 -2.392000
16.218000 -2.364000 -2.162000
17.299999 -2.520000 -1.712000
13.434000 -2.014000 -2.478000
15.443000 -2.307000 -2.312000
16.804001 -2.513000 -1.954000
14.384000 -2.198000 -2.398000
16.218000 -2.474000 -2.168000
17.306999 -2.637000 -1.718000
