# This PCD file was generated using the MATLAB® pcwrite function
# from Computer Vision Toolbox®.
# .PCD v.7 - Point Cloud Data file format
VERSION .7
FIELDS x y z
SIZE 4 4 4
TYPE F F F
COUNT 1 1 1
WIDTH 1607
HEIGHT 1
VIEWPOINT 0 0 0 1 0 0 0
POINTS 1607
DATA ascii
0.000000 0.000000 0.000000
0.000000 0.000000 0.000000
0.000000 0.000000 0.000000
0.000000 0.000000 0.000000
14.523000 24.858999 -2.039000
0.000000 0.000000 0.000000
0.000000 0.000000 0.000000
13.123000 22.938999 -2.360000
0.000000 0.000000 0.000000
0.000000 0.000000 0.000000
14.352000 24.299000 -2.090000
18.551001 30.368000 -1.542000
0.000000 0.000000 0.000000
13.094000 22.632000 -2.422000
15.843000 26.209000 -1.847000
0.000000 0.000000 0.000000
14.155000 23.683001 -2.130000
18.195000 29.414000 -1.603000
0.000000 0.000000 0.000000
12.913000 22.048000 -2.449000
15.545000 25.393999 -1.888000
0.000000 0.000000 0.000000
14.004000 23.136999 -2.174000
17.709000 28.253000 -1.649000
0.000000 0.000000 0.000000
12.686000 21.378000 -2.459000
15.329000 24.709999 -1.930000
0.000000 0.000000 0.000000
14.002000 22.832001 -2.235000
17.354000 27.315001 -1.696000
0.000000 0.000000 0.000000
12.573000 20.900000 -2.491000
15.195000 24.159000 -1.981000
19.945000 30.747000 -1.386000
13.874000 22.312000 -2.269000
17.086000 26.518000 -1.743000
0.000000 0.000000 0.000000
12.385000 20.296000 -2.499000
14.984000 23.489000 -2.015000
19.531000 29.676001 -1.443000
13.844000 21.947001 -2.319000
16.864000 25.798000 -1.792000
0.000000 0.000000 0.000000
12.279000 19.823999 -2.519000
14.857000 22.950001 -2.053000
19.157000 28.680000 -1.494000
13.667000 21.351999 -2.338000
16.638000 25.083000 -1.833000
22.122000 32.528000 -1.109000
12.153000 19.323000 -2.533000
14.871000 22.632000 -2.111000
18.625000 27.466000 -1.529000
13.565000 20.875999 -2.364000
16.420000 24.386999 -1.868000
21.375999 30.952999 -1.158000
12.083000 18.917000 -2.554000
14.781000 22.157000 -2.148000
18.559000 26.957001 -1.593000
13.456000 20.393000 -2.389000
16.205999 23.705000 -1.902000
21.179001 30.197001 -1.232000
11.944000 18.403999 -2.555000
14.690000 21.684000 -2.180000
18.139999 25.945999 -1.620000
13.334000 19.896999 -2.405000
16.077000 23.160000 -1.940000
20.759001 29.143999 -1.283000
11.848000 17.965000 -2.565000
14.558000 21.156000 -2.205000
17.978001 25.316999 -1.669000
13.187000 19.370001 -2.413000
15.946000 22.618000 -1.972000
20.541000 28.393000 -1.341000
11.799000 17.603001 -2.581000
14.527000 20.783001 -2.241000
17.757000 24.621000 -1.705000
13.076000 18.903000 -2.426000
15.823000 22.094000 -2.005000
20.148001 27.410999 -1.384000
11.727000 17.209000 -2.588000
14.424000 20.311001 -2.261000
17.549999 23.957001 -1.737000
12.972000 18.455999 -2.436000
15.628000 21.483000 -2.022000
19.933001 26.695999 -1.431000
11.661000 16.832001 -2.597000
14.357000 19.896000 -2.286000
17.360001 23.322001 -1.768000
12.903000 18.062000 -2.449000
15.500000 20.972000 -2.044000
19.527000 25.743999 -1.460000
11.591000 16.457001 -2.601000
14.258000 19.445000 -2.303000
17.188999 22.732000 -1.797000
12.854000 17.704000 -2.466000
15.431000 20.548000 -2.073000
19.422001 25.198999 -1.507000
11.521000 16.086000 -2.601000
14.170000 19.014999 -2.316000
17.072001 22.224001 -1.827000
12.774000 17.311001 -2.473000
15.360000 20.132000 -2.098000
19.184000 24.500000 -1.539000
11.466000 15.743000 -2.606000
14.027000 18.521000 -2.321000
16.931000 21.688999 -1.852000
12.723000 16.962000 -2.483000
15.068000 19.436001 -2.088000
18.957001 23.830999 -1.568000
11.411000 15.407000 -2.607000
13.878000 18.032000 -2.321000
16.844999 21.239000 -1.880000
12.656000 16.597000 -2.490000
14.928000 18.948999 -2.099000
18.738001 23.180000 -1.594000
11.365000 15.089000 -2.608000
13.732000 17.554001 -2.318000
16.601999 20.604000 -1.887000
12.592000 16.246000 -2.494000
14.987000 18.724001 -2.134000
18.604000 22.653999 -1.624000
11.324000 14.783000 -2.610000
13.609000 17.117001 -2.319000
16.480000 20.125000 -1.905000
12.558000 15.937000 -2.501000
14.847000 18.253000 -2.138000
10.239000 12.272000 -0.915000
11.351000 14.573000 -2.626000
13.497000 16.702999 -2.319000
10.253000 12.325000 -1.204000
12.480000 15.580000 -2.501000
10.272000 12.427000 -1.496000
10.283000 12.128000 -0.939000
11.317000 14.286000 -2.625000
13.516000 16.457001 -2.338000
10.295000 12.180000 -1.226000
12.362000 15.181000 -2.489000
10.302000 12.265000 -1.515000
10.335000 11.999000 -0.963000
11.303000 14.030000 -2.630000
13.465000 16.129000 -2.346000
10.344000 12.042000 -1.248000
12.446000 15.036000 -2.516000
10.345000 12.121000 -1.534000
10.376000 11.858000 -0.984000
11.287000 13.779000 -2.632000
13.379000 15.770000 -2.345000
10.396000 11.913000 -1.270000
12.457000 14.803000 -2.528000
10.393000 11.982000 -1.555000
10.434000 11.735000 -1.006000
11.262000 13.519000 -2.630000
12.540000 14.543000 -2.208000
10.444000 11.779000 -1.289000
12.388000 14.482000 -2.523000
10.447000 11.853000 -1.574000
10.481000 11.603000 -1.027000
11.235000 13.262000 -2.628000
12.714000 14.506000 -2.251000
8.249000 9.154000 -1.029000
10.426000 11.990000 -2.128000
8.183000 9.137000 -1.241000
10.704000 11.664000 -1.063000
11.219000 13.025000 -2.627000
8.090000 9.082000 -1.438000
8.334000 9.104000 -1.049000
8.135000 9.203000 -1.665000
8.239000 9.052000 -1.257000
10.592000 11.359000 -1.066000
8.093000 9.239000 -1.895000
8.096000 8.943000 -1.444000
10.628000 11.427000 -1.349000
8.036000 8.943000 -1.648000
8.341000 9.020000 -1.280000
10.563000 11.151000 -1.076000
8.117000 9.113000 -1.902000
8.232000 8.946000 -1.473000
10.555000 11.168000 -1.350000
8.112000 8.880000 -1.665000
10.560000 11.238000 -1.627000
10.702000 11.121000 -1.101000
8.130000 8.978000 -1.905000
10.650000 11.390000 -1.911000
10.690000 11.133000 -1.376000
8.289000 8.927000 -1.704000
10.656000 11.159000 -1.650000
10.816000 11.062000 -1.125000
8.212000 8.918000 -1.923000
10.612000 11.166000 -1.908000
10.808000 11.080000 -1.400000
8.455000 8.958000 -1.740000
7.943000 8.187000 -1.234000
10.944000 11.019000 -1.148000
8.322000 8.888000 -1.948000
8.099000 8.385000 -1.459000
10.941000 11.037000 -1.425000
8.013000 8.352000 -1.649000
8.006000 8.121000 -1.248000
11.951000 11.845000 -1.264000
7.961000 8.363000 -1.862000
8.051000 8.202000 -1.453000
11.897000 11.814000 -1.557000
8.054000 8.260000 -1.658000
8.148000 8.134000 -1.273000
12.133000 11.835000 -1.293000
7.996000 8.262000 -1.868000
8.136000 8.157000 -1.470000
11.939000 11.670000 -1.570000
8.068000 8.140000 -1.661000
11.324000 11.125000 -1.774000
12.210000 11.725000 -1.309000
8.044000 8.175000 -1.877000
8.169000 8.058000 -1.477000
12.328000 11.861000 -1.626000
8.105000 8.045000 -1.667000
12.133000 11.732000 -1.904000
12.502000 11.818000 -1.349000
8.086000 8.083000 -1.884000
8.225000 7.984000 -1.487000
12.511000 11.847000 -1.656000
8.254000 8.060000 -1.697000
12.301000 11.704000 -1.933000
12.634000 11.756000 -1.369000
8.195000 8.057000 -1.905000
11.548000 11.031000 -2.089000
12.636000 11.777000 -1.678000
8.300000 7.975000 -1.705000
12.420000 11.631000 -1.954000
12.789000 11.713000 -1.393000
8.320000 8.046000 -1.931000
12.393000 11.647000 -2.241000
12.772000 11.717000 -1.699000
12.249000 11.579000 -2.512000
12.708000 11.713000 -2.001000
12.926000 11.654000 -1.414000
8.415000 8.005000 -1.949000
12.581000 11.635000 -2.274000
12.929000 11.673000 -1.724000
12.366000 11.500000 -2.533000
12.820000 11.627000 -2.020000
13.046000 11.578000 -1.432000
11.382000 10.650000 -2.629000
13.544000 12.326000 -2.446000
13.064000 11.610000 -1.744000
12.369000 11.318000 -2.530000
12.627000 11.271000 -1.989000
13.220000 11.549000 -1.456000
11.422000 10.512000 -2.632000
13.474000 12.064000 -2.431000
13.208000 11.553000 -1.765000
12.407000 11.169000 -2.532000
13.090000 11.500000 -2.062000
13.350000 11.480000 -1.474000
11.454000 10.370000 -2.632000
13.508000 11.902000 -2.434000
13.366000 11.506000 -1.788000
12.427000 11.006000 -2.532000
13.244000 11.449000 -2.085000
13.485000 11.414000 -1.491000
11.476000 10.220000 -2.629000
13.515000 11.718000 -2.431000
13.487000 11.428000 -1.805000
12.458000 10.856000 -2.532000
15.072000 12.823000 -2.371000
13.645000 11.367000 -1.512000
11.495000 10.069000 -2.626000
13.536000 11.547000 -2.431000
13.656000 11.388000 -1.827000
12.469000 10.689000 -2.527000
15.051000 12.602000 -2.365000
13.792000 11.310000 -1.530000
11.517000 9.923000 -2.623000
13.558000 11.380000 -2.430000
13.820000 11.342000 -1.849000
12.510000 10.550000 -2.529000
14.915000 12.288000 -2.340000
13.931000 11.244000 -1.546000
11.552000 9.790000 -2.621000
13.580000 11.217000 -2.429000
13.914000 11.239000 -1.860000
12.526000 10.393000 -2.526000
14.947000 12.118000 -2.342000
14.090000 11.192000 -1.565000
11.560000 9.635000 -2.615000
9.575000 7.780000 -1.708000
9.756000 7.755000 -1.303000
12.549000 10.243000 -2.522000
15.008000 11.974000 -2.347000
9.763000 7.633000 -1.084000
11.603000 9.514000 -2.615000
9.624000 7.694000 -1.713000
9.743000 7.621000 -1.300000
12.585000 10.105000 -2.522000
9.610000 7.544000 -1.500000
9.810000 7.549000 -1.089000
9.643000 7.776000 -2.165000
9.651000 7.592000 -1.713000
9.811000 7.553000 -1.307000
9.654000 7.626000 -1.928000
9.683000 7.480000 -1.508000
14.534000 11.005000 -1.613000
9.677000 7.675000 -2.165000
9.704000 7.509000 -1.718000
14.449000 10.945000 -1.921000
9.689000 7.529000 -1.928000
9.845000 7.483000 -1.529000
14.708000 10.961000 -1.631000
9.763000 7.615000 -2.176000
9.833000 7.486000 -1.735000
14.629000 10.903000 -1.942000
9.811000 7.499000 -1.946000
14.984000 11.204000 -2.322000
14.841000 10.883000 -1.642000
9.889000 7.586000 -2.194000
13.743000 10.294000 -2.417000
14.782000 10.842000 -1.958000
12.699000 9.548000 -2.510000
15.024000 11.053000 -2.321000
14.981000 10.809000 -1.656000
11.769000 8.879000 -2.602000
13.783000 10.154000 -2.416000
14.973000 10.805000 -1.978000
12.740000 9.422000 -2.509000
15.061000 10.901000 -2.320000
15.161000 10.765000 -1.673000
11.801000 8.756000 -2.598000
13.815000 10.012000 -2.413000
16.635000 11.809000 -2.193000
12.772000 9.288000 -2.505000
15.090000 10.743000 -2.317000
15.295000 10.685000 -1.684000
11.847000 8.645000 -2.597000
13.845000 9.870000 -2.410000
14.557000 10.168000 -1.914000
12.812000 9.164000 -2.503000
14.618000 10.238000 -2.237000
14.553000 10.001000 -1.599000
11.879000 8.521000 -2.593000
13.886000 9.735000 -2.408000
14.496000 9.960000 -1.899000
12.846000 9.037000 -2.500000
14.840000 10.224000 -2.264000
14.482000 9.792000 -1.587000
11.926000 8.413000 -2.591000
13.927000 9.603000 -2.406000
14.426000 9.750000 -1.885000
12.878000 8.907000 -2.496000
14.966000 10.140000 -2.275000
14.419000 9.591000 -1.575000
11.961000 8.297000 -2.587000
13.966000 9.472000 -2.403000
14.349000 9.540000 -1.869000
12.919000 8.787000 -2.493000
15.140000 10.090000 -2.293000
14.367000 9.400000 -1.566000
12.000000 8.182000 -2.584000
14.010000 9.342000 -2.401000
14.300000 9.350000 -1.855000
12.946000 8.659000 -2.488000
14.358000 9.411000 -2.166000
14.509000 9.337000 -1.576000
12.027000 8.062000 -2.578000
14.046000 9.210000 -2.397000
14.437000 9.283000 -1.867000
12.987000 8.539000 -2.485000
15.312000 9.868000 -2.301000
14.670000 9.285000 -1.587000
12.074000 7.957000 -2.576000
14.077000 9.077000 -2.393000
14.601000 9.234000 -1.881000
13.036000 8.426000 -2.483000
15.371000 9.741000 -2.300000
14.828000 9.229000 -1.600000
12.127000 7.854000 -2.575000
14.128000 8.955000 -2.391000
14.775000 9.187000 -1.895000
13.062000 8.301000 -2.476000
15.399000 9.595000 -2.295000
14.992000 9.176000 -1.611000
12.165000 7.744000 -2.571000
14.188000 8.841000 -2.390000
14.946000 9.137000 -1.910000
13.111000 8.188000 -2.474000
14.932000 9.145000 -2.216000
15.207000 9.152000 -1.627000
12.204000 7.636000 -2.567000
14.206000 8.702000 -2.383000
15.110000 9.083000 -1.923000
13.146000 8.070000 -2.469000
15.207000 9.156000 -2.247000
15.312000 9.059000 -1.632000
12.241000 7.525000 -2.562000
14.255000 8.582000 -2.380000
15.272000 9.024000 -1.935000
13.193000 7.960000 -2.467000
15.340000 9.080000 -2.257000
15.501000 9.016000 -1.646000
12.284000 7.420000 -2.558000
14.285000 8.452000 -2.374000
15.444000 8.969000 -1.948000
13.234000 7.845000 -2.462000
15.497000 9.013000 -2.269000
18.760000 10.725000 -1.983000
12.321000 7.313000 -2.554000
14.342000 8.340000 -2.372000
17.077999 9.749000 -2.145000
13.279000 7.735000 -2.459000
15.614000 8.925000 -2.276000
18.853001 10.593000 -1.984000
12.369000 7.211000 -2.551000
14.369000 8.208000 -2.365000
17.132000 9.610000 -2.141000
13.328000 7.628000 -2.456000
15.674000 8.805000 -2.274000
18.955999 10.468000 -1.986000
12.414000 7.110000 -2.548000
14.427000 8.098000 -2.364000
17.201000 9.480000 -2.140000
13.380000 7.521000 -2.454000
15.727000 8.678000 -2.270000
19.080999 10.353000 -1.989000
12.458000 7.008000 -2.544000
14.474000 7.981000 -2.360000
17.253000 9.343000 -2.137000
13.416000 7.407000 -2.448000
15.774000 8.551000 -2.266000
19.135000 10.199000 -1.986000
12.510000 6.910000 -2.541000
14.509000 7.857000 -2.354000
17.308001 9.207000 -2.132000
13.465000 7.302000 -2.445000
15.815000 8.421000 -2.261000
19.153999 10.030000 -1.978000
12.557000 6.811000 -2.538000
14.551000 7.739000 -2.349000
17.348000 9.064000 -2.127000
13.518000 7.197000 -2.442000
15.868000 8.296000 -2.257000
19.153000 9.851000 -1.967000
12.604000 6.712000 -2.535000
14.580000 7.615000 -2.342000
17.417999 8.938000 -2.125000
13.551000 7.084000 -2.436000
15.929000 8.179000 -2.255000
19.177000 9.685000 -1.960000
12.642000 6.608000 -2.530000
14.644000 7.508000 -2.341000
17.464001 8.799000 -2.119000
13.594000 6.977000 -2.432000
15.987000 8.060000 -2.252000
19.188000 9.516000 -1.950000
12.692000 6.512000 -2.527000
14.680000 7.388000 -2.335000
17.504999 8.658000 -2.114000
13.639000 6.869000 -2.427000
16.035999 7.936000 -2.247000
19.299000 9.397000 -1.952000
12.737000 6.413000 -2.523000
14.733000 7.278000 -2.331000
17.561001 8.527000 -2.110000
13.682000 6.763000 -2.423000
16.070999 7.805000 -2.241000
19.372000 9.257000 -1.948000
12.784000 6.314000 -2.520000
14.769000 7.159000 -2.325000
17.625999 8.400000 -2.107000
13.735000 6.662000 -2.420000
16.139999 7.693000 -2.239000
19.437000 9.116000 -1.944000
12.824000 6.214000 -2.515000
14.812000 7.045000 -2.320000
17.677999 8.265000 -2.102000
13.794000 6.561000 -2.418000
16.184999 7.568000 -2.233000
19.495001 8.972000 -1.939000
12.875000 6.120000 -2.512000
14.885000 6.945000 -2.320000
17.747999 8.141000 -2.099000
13.826000 6.451000 -2.411000
16.228001 7.443000 -2.228000
19.365000 8.741000 -1.916000
12.921000 6.021000 -2.508000
14.937000 6.835000 -2.315000
17.783001 8.002000 -2.092000
13.881000 6.352000 -2.409000
16.285999 7.326000 -2.224000
19.320000 8.554000 -1.900000
12.979000 5.930000 -2.507000
14.994000 6.727000 -2.313000
17.861000 7.880000 -2.089000
13.927000 6.247000 -2.404000
16.341000 7.207000 -2.219000
19.240000 8.354000 -1.882000
13.017000 5.830000 -2.502000
15.033000 6.612000 -2.307000
17.930000 7.756000 -2.086000
13.985000 6.149000 -2.402000
16.372000 7.078000 -2.212000
19.235001 8.187000 -1.870000
13.062000 5.732000 -2.498000
15.086000 6.504000 -2.303000
17.971001 7.620000 -2.080000
14.026000 6.044000 -2.397000
16.431999 6.963000 -2.209000
19.275000 8.042000 -1.864000
13.109000 5.637000 -2.494000
15.151000 6.400000 -2.301000
18.025999 7.489000 -2.075000
14.090000 5.947000 -2.396000
16.465000 6.836000 -2.201000
19.198000 7.849000 -1.846000
13.150000 5.539000 -2.490000
15.197000 6.289000 -2.296000
17.725000 7.215000 -2.029000
14.118000 5.837000 -2.389000
16.482000 6.703000 -2.193000
17.259001 6.911000 -1.649000
13.187000 5.439000 -2.484000
15.238000 6.176000 -2.291000
17.253000 6.880000 -1.964000
14.162000 5.734000 -2.385000
16.517000 6.578000 -2.186000
17.181000 6.739000 -1.632000
13.221000 5.339000 -2.479000
15.295000 6.069000 -2.288000
17.176001 6.705000 -1.945000
14.212000 5.632000 -2.381000
16.483999 6.428000 -2.170000
17.125000 6.578000 -1.618000
13.266000 5.243000 -2.475000
15.345000 5.960000 -2.284000
17.110001 6.539000 -1.927000
14.259000 5.531000 -2.377000
16.532000 6.309000 -2.165000
17.049000 6.408000 -1.601000
13.310000 5.146000 -2.471000
15.398000 5.853000 -2.280000
17.042999 6.375000 -1.909000
14.296000 5.426000 -2.372000
16.552000 6.181000 -2.157000
16.975000 6.244000 -1.585000
13.347000 5.048000 -2.466000
15.441000 5.741000 -2.275000
16.978001 6.212000 -1.891000
14.369000 5.333000 -2.372000
16.540001 6.041000 -2.143000
17.007999 6.120000 -1.579000
13.391000 4.953000 -2.463000
15.496000 5.635000 -2.272000
17.042999 6.103000 -1.888000
14.423000 5.239000 -2.370000
16.594000 5.932000 -2.140000
17.184000 6.056000 -1.586000
13.421000 4.860000 -2.458000
15.542000 5.534000 -2.268000
17.110001 6.001000 -1.886000
14.456000 5.141000 -2.365000
16.653000 5.828000 -2.138000
17.361000 5.992000 -1.594000
13.459000 4.771000 -2.454000
15.588000 5.434000 -2.265000
17.094999 5.871000 -1.875000
14.502000 5.048000 -2.362000
16.719000 5.728000 -2.136000
17.507999 5.916000 -1.599000
13.493000 4.681000 -2.449000
15.630000 5.333000 -2.261000
17.155001 5.766000 -1.872000
14.487000 4.935000 -2.350000
16.775999 5.625000 -2.134000
17.587000 5.815000 -1.598000
13.541000 4.595000 -2.448000
15.672000 5.232000 -2.257000
17.221001 5.663000 -1.871000
14.560000 4.850000 -2.351000
16.790001 5.506000 -2.125000
17.601000 5.694000 -1.590000
13.573000 4.505000 -2.443000
15.678000 5.118000 -2.247000
17.302999 5.566000 -1.870000
14.612000 4.761000 -2.350000
16.791000 5.385000 -2.116000
17.655001 5.586000 -1.587000
13.596000 4.412000 -2.438000
15.714000 5.015000 -2.243000
17.355000 5.458000 -1.866000
14.651000 4.666000 -2.346000
16.785000 5.263000 -2.106000
17.761999 5.492000 -1.588000
13.640000 4.324000 -2.435000
15.759000 4.916000 -2.240000
17.421000 5.354000 -1.865000
14.673000 4.565000 -2.340000
16.823999 5.153000 -2.101000
17.854000 5.396000 -1.588000
13.678000 4.236000 -2.432000
15.807000 4.816000 -2.237000
17.396000 5.224000 -1.853000
14.710000 4.470000 -2.336000
16.903999 5.058000 -2.102000
17.885000 5.280000 -1.583000
13.708000 4.145000 -2.428000
15.843000 4.714000 -2.232000
17.407000 5.105000 -1.846000
14.741000 4.374000 -2.332000
16.917000 4.943000 -2.094000
17.823999 5.136000 -1.569000
13.754000 4.058000 -2.426000
15.851000 4.604000 -2.224000
17.431999 4.989000 -1.840000
14.793000 4.282000 -2.330000
16.889000 4.814000 -2.081000
17.773001 4.999000 -1.557000
13.779000 3.967000 -2.421000
15.910000 4.507000 -2.223000
17.374001 4.852000 -1.825000
14.835000 4.189000 -2.328000
16.745001 4.656000 -2.055000
17.764000 4.874000 -1.548000
13.825000 3.881000 -2.420000
15.948000 4.406000 -2.219000
17.379999 4.733000 -1.817000
14.839000 4.085000 -2.319000
16.621000 4.506000 -2.031000
17.683001 4.729000 -1.533000
13.848000 3.788000 -2.415000
15.938000 4.292000 -2.209000
17.211000 4.567000 -1.792000
14.894000 3.994000 -2.319000
16.576000 4.378000 -2.017000
17.615000 4.591000 -1.520000
13.892000 3.701000 -2.414000
15.932000 4.178000 -2.199000
17.077999 4.415000 -1.770000
14.946000 3.904000 -2.318000
16.436001 4.228000 -1.992000
17.523001 4.449000 -1.504000
13.927000 3.613000 -2.411000
15.905000 4.061000 -2.187000
16.926001 4.261000 -1.746000
14.967000 3.805000 -2.313000
16.370001 4.099000 -1.976000
17.427000 4.305000 -1.489000
13.967000 3.525000 -2.410000
15.884000 3.946000 -2.176000
16.868000 4.130000 -1.733000
15.000000 3.708000 -2.310000
16.320999 3.974000 -1.962000
17.372000 4.175000 -1.477000
14.003000 3.435000 -2.407000
15.874000 3.833000 -2.166000
16.923000 4.030000 -1.731000
15.033000 3.613000 -2.306000
16.392000 3.880000 -1.962000
17.351000 4.054000 -1.469000
14.031000 3.345000 -2.404000
15.934000 3.739000 -2.166000
16.997000 3.933000 -1.731000
15.073000 3.519000 -2.304000
16.572001 3.811000 -1.976000
17.405001 3.949000 -1.466000
14.066000 3.256000 -2.402000
16.086000 3.666000 -2.179000
17.052999 3.830000 -1.730000
15.114000 3.424000 -2.303000
16.597000 3.704000 -1.972000
17.431999 3.839000 -1.462000
14.091000 3.163000 -2.398000
16.136999 3.567000 -2.178000
17.034000 3.713000 -1.721000
15.126000 3.324000 -2.297000
16.597000 3.592000 -1.964000
17.438000 3.726000 -1.456000
14.121000 3.074000 -2.395000
16.117001 3.454000 -2.168000
17.048000 3.603000 -1.715000
15.162000 3.229000 -2.295000
16.638000 3.490000 -1.962000
17.469999 3.616000 -1.452000
14.142000 2.982000 -2.391000
16.132000 3.349000 -2.163000
17.135000 3.506000 -1.718000
15.179000 3.129000 -2.289000
16.681999 3.389000 -1.960000
17.507000 3.509000 -1.449000
14.192000 2.895000 -2.392000
16.268999 3.267000 -2.174000
17.153999 3.398000 -1.713000
15.209000 3.033000 -2.287000
16.813000 3.302000 -1.969000
17.534000 3.400000 -1.445000
14.218000 2.804000 -2.390000
16.367001 3.178000 -2.180000
17.188999 3.292000 -1.710000
15.229000 2.935000 -2.283000
16.912001 3.210000 -1.973000
17.566999 3.291000 -1.442000
14.217000 2.708000 -2.383000
16.382999 3.073000 -2.175000
17.226999 3.185000 -1.707000
15.274000 2.840000 -2.283000
16.896999 3.097000 -1.965000
17.590000 3.181000 -1.438000
14.262000 2.620000 -2.383000
16.399000 2.966000 -2.170000
17.282000 3.083000 -1.707000
15.338000 2.750000 -2.286000
16.886000 2.983000 -1.958000
17.618000 3.073000 -1.434000
14.300000 2.531000 -2.383000
16.360001 2.852000 -2.158000
17.289000 2.972000 -1.702000
15.346000 2.651000 -2.280000
16.860001 2.868000 -1.948000
17.628000 2.961000 -1.430000
14.316000 2.439000 -2.379000
16.360001 2.745000 -2.152000
17.264000 2.855000 -1.693000
15.343000 2.547000 -2.273000
16.844999 2.756000 -1.941000
17.672001 2.854000 -1.428000
14.326000 2.344000 -2.375000
16.344999 2.634000 -2.144000
17.254000 2.742000 -1.686000
15.339000 2.446000 -2.267000
16.806000 2.640000 -1.930000
17.684999 2.743000 -1.424000
14.375000 2.257000 -2.377000
16.365999 2.531000 -2.141000
17.252001 2.631000 -1.681000
15.367000 2.350000 -2.265000
16.833000 2.535000 -1.928000
17.695000 2.632000 -1.420000
14.396000 2.165000 -2.374000
16.340000 2.421000 -2.132000
17.261000 2.520000 -1.677000
15.478000 2.264000 -2.276000
16.802999 2.423000 -1.919000
17.716999 2.521000 -1.416000
14.407000 2.071000 -2.370000
16.333000 2.313000 -2.125000
17.257999 2.410000 -1.671000
15.431000 2.157000 -2.263000
16.815001 2.315000 -1.915000
17.705999 2.407000 -1.411000
14.459000 1.984000 -2.374000
16.313000 2.205000 -2.117000
17.273001 2.302000 -1.668000
15.403000 2.053000 -2.254000
16.862000 2.214000 -1.915000
17.705999 2.295000 -1.406000
14.472000 1.891000 -2.371000
16.302000 2.098000 -2.111000
17.302000 2.194000 -1.666000
15.496000 1.965000 -2.262000
16.848000 2.104000 -1.909000
17.705999 2.182000 -1.402000
14.508000 1.800000 -2.372000
16.349001 1.998000 -2.112000
17.311001 2.086000 -1.662000
15.499000 1.865000 -2.258000
16.827000 1.993000 -1.902000
17.716999 2.072000 -1.399000
14.519000 1.707000 -2.369000
16.340000 1.893000 -2.106000
17.325001 1.979000 -1.659000
15.592000 1.775000 -2.267000
16.851999 1.889000 -1.900000
17.771999 1.967000 -1.399000
14.545000 1.616000 -2.368000
16.327999 1.787000 -2.100000
17.348000 1.870000 -1.657000
15.543000 1.670000 -2.255000
16.870001 1.784000 -1.898000
17.721001 1.849000 -1.391000
14.534000 1.520000 -2.362000
16.337999 1.683000 -2.097000
17.344000 1.761000 -1.653000
15.567000 1.572000 -2.254000
16.924999 1.682000 -1.900000
17.736000 1.740000 -1.389000
14.539000 1.427000 -2.359000
16.389000 1.584000 -2.099000
17.333000 1.651000 -1.648000
15.625000 1.478000 -2.259000
16.924999 1.575000 -1.896000
17.739000 1.630000 -1.385000
14.600000 1.339000 -2.365000
16.466000 1.487000 -2.105000
17.358000 1.543000 -1.647000
15.642000 1.380000 -2.257000
16.952000 1.471000 -1.896000
17.775999 1.521000 -1.385000
14.604000 1.244000 -2.362000
16.416000 1.378000 -2.095000
17.431000 1.441000 -1.650000
15.734000 1.286000 -2.267000
16.947001 1.363000 -1.892000
17.790001 1.413000 -1.383000
14.583000 1.149000 -2.355000
16.409000 1.273000 -2.091000
17.434999 1.334000 -1.648000
15.730000 1.187000 -2.263000
16.972000 1.259000 -1.891000
17.790001 1.304000 -1.380000
14.625000 1.060000 -2.358000
16.400999 1.170000 -2.086000
17.412001 1.223000 -1.643000
15.698000 1.085000 -2.255000
16.973000 1.154000 -1.888000
17.808001 1.193000 -1.378000
14.700000 0.971000 -2.367000
16.413000 1.068000 -2.085000
17.396000 1.113000 -1.638000
15.701000 0.985000 -2.252000
16.979000 1.046000 -1.886000
17.790001 1.082000 -1.374000
14.711000 0.877000 -2.366000
16.403000 0.963000 -2.081000
17.427000 1.007000 -1.638000
15.788000 0.891000 -2.262000
16.933001 0.938000 -1.878000
17.799000 0.974000 -1.373000
14.739000 0.785000 -2.368000
16.523001 0.867000 -2.093000
17.405001 0.899000 -1.634000
15.954000 0.800000 -2.283000
16.914000 0.832000 -1.874000
17.816000 0.863000 -1.371000
14.706000 0.690000 -2.360000
16.451000 0.760000 -2.082000
17.384001 0.789000 -1.629000
15.776000 0.690000 -2.255000
16.933001 0.726000 -1.873000
17.797001 0.753000 -1.368000
14.747000 0.597000 -2.364000
16.441999 0.655000 -2.078000
17.386000 0.682000 -1.628000
15.775000 0.591000 -2.253000
16.929001 0.621000 -1.871000
17.764000 0.643000 -1.363000
14.783000 0.505000 -2.368000
16.436001 0.553000 -2.076000
17.375000 0.574000 -1.625000
15.833000 0.494000 -2.259000
16.945000 0.517000 -1.871000
17.784000 0.533000 -1.363000
14.785000 0.411000 -2.366000
16.471001 0.452000 -2.078000
17.353001 0.465000 -1.621000
15.865000 0.394000 -2.262000
16.913000 0.411000 -1.865000
17.750000 0.424000 -1.359000
14.808000 0.318000 -2.368000
16.459999 0.347000 -2.075000
17.351999 0.358000 -1.619000
16.068001 0.298000 -2.289000
16.924999 0.305000 -1.865000
17.711000 0.315000 -1.354000
14.827000 0.225000 -2.370000
16.489000 0.246000 -2.077000
17.349001 0.252000 -1.617000
15.868000 0.196000 -2.259000
16.940001 0.201000 -1.865000
17.702999 0.205000 -1.352000
14.770000 0.131000 -2.360000
16.521999 0.144000 -2.080000
17.313999 0.144000 -1.613000
15.861000 0.095000 -2.257000
16.995001 0.096000 -1.870000
17.683001 0.097000 -1.350000
14.784000 0.037000 -2.361000
16.527000 0.040000 -2.080000
17.302999 0.038000 -1.611000
15.885000 -0.003000 -2.260000
16.962999 -0.008000 -1.866000
17.645000 -0.009000 -1.346000
14.827000 -0.055000 -2.367000
16.540001 -0.062000 -2.080000
17.278000 -0.067000 -1.608000
16.132999 -0.104000 -2.294000
16.938999 -0.112000 -1.863000
17.638000 -0.117000 -1.345000
14.821000 -0.148000 -2.365000
16.469999 -0.163000 -2.071000
17.271999 -0.174000 -1.606000
15.795000 -0.201000 -2.246000
16.902000 -0.217000 -1.858000
17.634001 -0.226000 -1.344000
14.804000 -0.242000 -2.362000
16.434999 -0.266000 -2.066000
17.273001 -0.280000 -1.606000
15.693000 -0.298000 -2.230000
16.889999 -0.321000 -1.856000
17.683001 -0.334000 -1.347000
14.790000 -0.335000 -2.360000
16.351999 -0.366000 -2.055000
17.287001 -0.385000 -1.607000
15.684000 -0.395000 -2.229000
16.889999 -0.425000 -1.856000
17.660000 -0.441000 -1.345000
14.776000 -0.427000 -2.358000
16.253000 -0.464000 -2.043000
17.329000 -0.494000 -1.610000
15.684000 -0.494000 -2.229000
16.888000 -0.528000 -1.855000
17.691999 -0.550000 -1.347000
14.836000 -0.523000 -2.367000
16.264999 -0.566000 -2.044000
17.305000 -0.599000 -1.608000
15.675000 -0.591000 -2.228000
16.900000 -0.634000 -1.857000
17.687000 -0.657000 -1.346000
14.843000 -0.616000 -2.369000
16.452999 -0.674000 -2.068000
17.323999 -0.705000 -1.610000
15.649000 -0.687000 -2.225000
16.905001 -0.738000 -1.857000
17.683001 -0.765000 -1.346000
14.851000 -0.709000 -2.370000
16.452999 -0.776000 -2.068000
17.344000 -0.813000 -1.612000
15.831000 -0.794000 -2.251000
16.926001 -0.843000 -1.860000
17.680000 -0.873000 -1.346000
14.813000 -0.802000 -2.365000
16.431999 -0.878000 -2.066000
17.327999 -0.918000 -1.611000
15.906000 -0.898000 -2.262000
16.913000 -0.947000 -1.859000
17.702000 -0.981000 -1.348000
14.828000 -0.895000 -2.368000
16.441000 -0.980000 -2.068000
17.316000 -1.023000 -1.610000
15.898000 -0.996000 -2.262000
16.885000 -1.049000 -1.857000
17.707001 -1.089000 -1.349000
14.796000 -0.986000 -2.364000
16.436001 -1.081000 -2.068000
17.337000 -1.131000 -1.613000
15.886000 -1.094000 -2.262000
16.902000 -1.154000 -1.860000
17.701000 -1.197000 -1.349000
14.804000 -1.080000 -2.367000
16.424999 -1.183000 -2.068000
17.341000 -1.237000 -1.614000
15.908000 -1.196000 -2.266000
16.874001 -1.257000 -1.858000
17.709999 -1.305000 -1.351000
14.768000 -1.170000 -2.362000
16.438999 -1.285000 -2.071000
17.361000 -1.344000 -1.617000
15.842000 -1.289000 -2.258000
16.955000 -1.367000 -1.868000
17.725000 -1.414000 -1.353000
14.749000 -1.261000 -2.361000
16.454000 -1.388000 -2.074000
17.378000 -1.453000 -1.620000
15.898000 -1.393000 -2.268000
16.889999 -1.465000 -1.862000
17.752001 -1.525000 -1.356000
14.751000 -1.355000 -2.363000
16.409000 -1.486000 -2.070000
17.372999 -1.559000 -1.620000
15.883000 -1.491000 -2.267000
16.884001 -1.570000 -1.862000
17.738001 -1.632000 -1.356000
14.759000 -1.448000 -2.366000
16.396999 -1.587000 -2.070000
17.379000 -1.665000 -1.622000
15.848000 -1.586000 -2.264000
16.896000 -1.675000 -1.866000
17.759001 -1.741000 -1.359000
14.776000 -1.542000 -2.371000
16.398001 -1.688000 -2.072000
17.409000 -1.776000 -1.627000
15.848000 -1.685000 -2.266000
16.931999 -1.782000 -1.871000
17.778000 -1.853000 -1.361000
14.765000 -1.635000 -2.371000
16.379000 -1.788000 -2.072000
17.419001 -1.883000 -1.629000
15.827000 -1.783000 -2.265000
16.955000 -1.891000 -1.876000
17.750999 -1.958000 -1.361000
14.728000 -1.723000 -2.368000
16.385000 -1.891000 -2.074000
17.413000 -1.989000 -1.630000
15.791000 -1.877000 -2.262000
16.969999 -1.997000 -1.879000
17.771999 -2.068000 -1.364000
14.724000 -1.815000 -2.370000
16.392000 -1.993000 -2.078000
17.384001 -2.093000 -1.630000
15.833000 -1.980000 -2.271000
16.979000 -2.102000 -1.882000
17.790001 -2.180000 -1.367000
14.765000 -1.914000 -2.379000
16.386999 -2.095000 -2.080000
17.426001 -2.205000 -1.635000
15.775000 -2.073000 -2.265000
16.997999 -2.211000 -1.887000
17.806000 -2.290000 -1.370000
14.748000 -2.005000 -2.379000
16.386000 -2.197000 -2.082000
17.423000 -2.311000 -1.637000
15.788000 -2.173000 -2.269000
16.993999 -2.315000 -1.888000
17.792000 -2.397000 -1.371000
14.712000 -2.092000 -2.376000
16.422001 -2.304000 -2.089000
17.427999 -2.419000 -1.640000
15.758000 -2.268000 -2.268000
16.951000 -2.413000 -1.886000
17.802999 -2.508000 -1.373000
14.683000 -2.182000 -2.374000
16.398001 -2.402000 -2.088000
17.417000 -2.526000 -1.641000
15.759000 -2.368000 -2.271000
16.985001 -2.525000 -1.892000
17.841000 -2.622000 -1.378000
14.691000 -2.276000 -2.379000
16.405001 -2.506000 -2.092000
17.400999 -2.630000 -1.642000
15.743000 -2.464000 -2.272000
16.973000 -2.627000 -1.894000
17.823999 -2.728000 -1.379000
14.658000 -2.363000 -2.377000
16.384001 -2.605000 -2.092000
17.419001 -2.740000 -1.646000
15.696000 -2.555000 -2.268000
16.968000 -2.731000 -1.896000
17.849001 -2.843000 -1.383000
14.664000 -2.457000 -2.381000
16.389000 -2.708000 -2.096000
17.430000 -2.850000 -1.649000
15.672000 -2.650000 -2.268000
16.969000 -2.838000 -1.899000
17.820999 -2.947000 -1.383000
14.605000 -2.541000 -2.375000
16.358000 -2.806000 -2.095000
17.447001 -2.960000 -1.653000
15.666000 -2.748000 -2.270000
16.938000 -2.938000 -1.898000
17.839001 -3.059000 -1.387000
14.618000 -2.635000 -2.380000
16.334000 -2.904000 -2.095000
17.421000 -3.063000 -1.653000
15.599000 -2.834000 -2.264000
16.954000 -3.046000 -1.903000
17.868000 -3.175000 -1.391000
14.545000 -2.715000 -2.372000
16.391001 -3.016000 -2.105000
17.426001 -3.173000 -1.656000
15.565000 -2.927000 -2.263000
16.983999 -3.158000 -1.909000
17.853001 -3.282000 -1.393000
14.521000 -2.803000 -2.372000
16.382999 -3.118000 -2.108000
17.440001 -3.283000 -1.661000
15.578000 -3.027000 -2.268000
16.944000 -3.256000 -1.908000
17.827999 -3.387000 -1.393000
14.509000 -2.893000 -2.374000
16.382999 -3.221000 -2.111000
17.441000 -3.391000 -1.663000
15.582000 -3.127000 -2.272000
16.954000 -3.363000 -1.912000
17.844000 -3.501000 -1.397000
14.468000 -2.978000 -2.371000
16.355000 -3.318000 -2.111000
17.473000 -3.507000 -1.669000
15.545000 -3.219000 -2.271000
16.961000 -3.471000 -1.916000
17.857000 -3.614000 -1.400000
14.462000 -3.069000 -2.373000
16.391001 -3.430000 -2.119000
17.490000 -3.618000 -1.674000
15.527000 -3.313000 -2.272000
16.895000 -3.564000 -1.912000
17.871000 -3.727000 -1.404000
14.441000 -3.157000 -2.374000
16.407000 -3.536000 -2.124000
17.462999 -3.721000 -1.674000
15.505000 -3.407000 -2.272000
16.985001 -3.689000 -1.925000
17.902000 -3.845000 -1.409000
14.402000 -3.240000 -2.372000
16.389000 -3.635000 -2.126000
17.483999 -3.836000 -1.679000
15.492000 -3.504000 -2.274000
16.975000 -3.793000 -1.927000
17.922001 -3.960000 -1.413000
14.427000 -3.340000 -2.380000
16.413000 -3.745000 -2.132000
17.444000 -3.935000 -1.678000
15.464000 -3.595000 -2.274000
17.007999 -3.908000 -1.934000
17.945999 -4.076000 -1.417000
14.376000 -3.420000 -2.376000
16.426001 -3.852000 -2.138000
17.464001 -4.048000 -1.682000
15.460000 -3.693000 -2.277000
17.049000 -4.024000 -1.942000
17.961000 -4.192000 -1.421000
14.363000 -3.509000 -2.377000
16.517000 -3.977000 -2.153000
17.552000 -4.180000 -1.694000
15.469000 -3.795000 -2.282000
17.059000 -4.134000 -1.947000
17.996000 -4.313000 -1.426000
14.344000 -3.598000 -2.378000
16.507000 -4.081000 -2.156000
17.636000 -4.310000 -1.705000
15.442000 -3.886000 -2.282000
17.113001 -4.256000 -1.956000
18.086000 -4.446000 -1.435000
14.325000 -3.685000 -2.379000
16.561001 -4.199000 -2.166000
17.657000 -4.426000 -1.710000
15.427000 -3.981000 -2.284000
17.187000 -4.383000 -1.968000
18.292999 -4.612000 -1.455000
14.326000 -3.778000 -2.384000
16.556999 -4.303000 -2.169000
17.635000 -4.532000 -1.710000
15.382000 -4.069000 -2.281000
17.191000 -4.492000 -1.971000
18.544001 -4.791000 -1.476000
14.299000 -3.864000 -2.383000
16.556999 -4.410000 -2.173000
17.750999 -4.673000 -1.724000
15.361000 -4.162000 -2.282000
17.257999 -4.620000 -1.982000
18.656000 -4.937000 -1.488000
14.280000 -3.951000 -2.384000
16.576000 -4.520000 -2.179000
17.927000 -4.832000 -1.744000
15.358000 -4.260000 -2.285000
17.341999 -4.752000 -1.995000
18.900000 -5.120000 -1.510000
14.274000 -4.042000 -2.388000
16.520000 -4.610000 -2.175000
18.087000 -4.990000 -1.762000
15.325000 -4.350000 -2.285000
17.419001 -4.883000 -2.007000
19.245001 -5.335000 -1.539000
14.245000 -4.127000 -2.387000
16.573000 -4.732000 -2.186000
18.622000 -5.255000 -1.817000
15.359000 -4.459000 -2.293000
17.471001 -5.010000 -2.016000
19.735001 -5.594000 -1.581000
14.242000 -4.219000 -2.390000
16.551001 -4.832000 -2.186000
18.733000 -5.405000 -1.831000
15.320000 -4.546000 -2.291000
17.622999 -5.166000 -2.037000
20.132999 -5.833000 -1.615000
14.216000 -4.304000 -2.390000
16.497000 -4.921000 -2.183000
18.961000 -5.592000 -1.856000
15.306000 -4.641000 -2.293000
17.691999 -5.299000 -2.048000
20.188000 -5.978000 -1.621000
14.206000 -4.395000 -2.392000
16.518000 -5.035000 -2.189000
19.132000 -5.763000 -1.875000
15.295000 -4.738000 -2.295000
17.856001 -5.463000 -2.070000
20.240999 -6.121000 -1.627000
14.211000 -4.489000 -2.397000
16.499001 -5.135000 -2.189000
19.375000 -5.959000 -1.901000
15.281000 -4.832000 -2.296000
17.827000 -5.568000 -2.069000
20.523001 -6.335000 -1.652000
14.200000 -4.578000 -2.399000
16.478001 -5.234000 -2.190000
19.427999 -6.100000 -1.909000
15.273000 -4.929000 -2.299000
17.895000 -5.703000 -2.080000
20.606001 -6.493000 -1.660000
14.187000 -4.668000 -2.400000
16.459999 -5.335000 -2.191000
19.410000 -6.218000 -1.909000
15.254000 -5.023000 -2.299000
17.591999 -5.721000 -2.047000
20.572001 -6.612000 -1.659000
14.133000 -4.743000 -2.395000
16.433001 -5.433000 -2.190000
19.434000 -6.349000 -1.914000
15.233000 -5.115000 -2.299000
17.816000 -5.908000 -2.075000
20.549000 -6.734000 -1.658000
14.156000 -4.843000 -2.402000
16.427000 -5.537000 -2.192000
19.440001 -6.477000 -1.916000
15.216000 -5.208000 -2.299000
17.820000 -6.023000 -2.078000
20.533001 -6.861000 -1.658000
14.135000 -4.931000 -2.403000
16.430000 -5.644000 -2.195000
19.482000 -6.614000 -1.921000
15.197000 -5.302000 -2.300000
17.861000 -6.154000 -2.085000
21.004999 -7.152000 -1.697000
14.134000 -5.023000 -2.406000
16.406000 -5.743000 -2.194000
19.493999 -6.743000 -1.924000
15.183000 -5.396000 -2.300000
17.857000 -6.267000 -2.087000
21.340000 -7.401000 -1.725000
14.124000 -5.112000 -2.407000
16.420000 -5.854000 -2.198000
19.549999 -6.889000 -1.931000
15.178000 -5.493000 -2.302000
17.830999 -6.372000 -2.086000
21.395000 -7.558000 -1.730000
14.115000 -5.204000 -2.409000
16.400000 -5.954000 -2.198000
19.528999 -7.006000 -1.930000
15.158000 -5.587000 -2.302000
17.825001 -6.487000 -2.087000
21.381001 -7.689000 -1.729000
14.092000 -5.288000 -2.408000
16.395000 -6.059000 -2.199000
19.521000 -7.128000 -1.930000
15.143000 -5.680000 -2.302000
17.837000 -6.606000 -2.089000
21.374001 -7.823000 -1.729000
14.084000 -5.378000 -2.409000
16.360001 -6.153000 -2.196000
19.518000 -7.253000 -1.931000
15.134000 -5.776000 -2.303000
17.830000 -6.718000 -2.090000
21.343000 -7.954000 -1.726000
14.073000 -5.471000 -2.410000
16.365000 -6.266000 -2.198000
19.509001 -7.386000 -1.930000
15.141000 -5.887000 -2.306000
17.826000 -6.843000 -2.090000
21.365000 -8.110000 -1.728000
14.064000 -5.568000 -2.411000
16.372000 -6.384000 -2.201000
19.511999 -7.523000 -1.930000
15.133000 -5.991000 -2.307000
17.825001 -6.967000 -2.091000
21.347000 -8.252000 -1.725000
14.052000 -5.666000 -2.411000
16.358999 -6.495000 -2.200000
19.517000 -7.661000 -1.931000
15.113000 -6.091000 -2.306000
17.826000 -7.092000 -2.091000
21.423000 -8.429000 -1.729000
14.045000 -5.764000 -2.413000
16.368999 -6.614000 -2.202000
19.523001 -7.800000 -1.930000
15.125000 -6.205000 -2.309000
17.822001 -7.217000 -2.091000
21.372000 -8.558000 -1.724000
14.038000 -5.861000 -2.413000
16.363001 -6.727000 -2.202000
19.521000 -7.935000 -1.929000
15.111000 -6.306000 -2.308000
17.827000 -7.344000 -2.091000
21.346001 -8.697000 -1.719000
14.031000 -5.960000 -2.414000
16.371000 -6.848000 -2.204000
19.566999 -8.091000 -1.933000
15.109000 -6.413000 -2.309000
17.812000 -7.462000 -2.089000
21.327999 -8.837000 -1.715000
14.032000 -6.062000 -2.415000
16.370001 -6.963000 -2.203000
19.565001 -8.227000 -1.930000
15.102000 -6.519000 -2.308000
17.836000 -7.600000 -2.091000
21.285999 -8.968000 -1.710000
14.031000 -6.161000 -2.416000
16.388000 -7.086000 -2.205000
19.570000 -8.365000 -1.929000
15.110000 -6.629000 -2.309000
17.847000 -7.729000 -2.091000
21.246000 -9.099000 -1.702000
14.025000 -6.261000 -2.416000
16.375999 -7.198000 -2.203000
19.591999 -8.511000 -1.928000
15.109000 -6.736000 -2.309000
17.848000 -7.854000 -2.089000
21.215000 -9.232000 -1.695000
14.029000 -6.363000 -2.417000
16.375999 -7.313000 -2.202000
19.612000 -8.658000 -1.927000
15.112000 -6.846000 -2.309000
17.862000 -7.987000 -2.088000
21.160999 -9.355000 -1.686000
14.028000 -6.463000 -2.417000
16.374001 -7.427000 -2.200000
19.636999 -8.805000 -1.926000
15.109000 -6.952000 -2.308000
17.867001 -8.114000 -2.086000
21.122000 -9.486000 -1.678000
14.017000 -6.559000 -2.415000
16.384001 -7.548000 -2.199000
19.666000 -8.954000 -1.925000
15.116000 -7.062000 -2.308000
17.879999 -8.245000 -2.085000
21.080999 -9.613000 -1.669000
14.018000 -6.660000 -2.414000
16.406000 -7.674000 -2.200000
19.702999 -9.110000 -1.923000
15.118000 -7.171000 -2.306000
17.896999 -8.379000 -2.083000
21.037001 -9.738000 -1.660000
14.022000 -6.762000 -2.414000
16.413000 -7.792000 -2.198000
19.721001 -9.255000 -1.920000
15.141000 -7.289000 -2.308000
17.938000 -8.523000 -2.084000
20.990999 -9.863000 -1.649000
14.040000 -6.871000 -2.415000
16.440001 -7.921000 -2.198000
19.760000 -9.409000 -1.918000
15.141000 -7.395000 -2.305000
17.958000 -8.657000 -2.082000
20.929001 -9.978000 -1.637000
14.043000 -6.972000 -2.414000
16.457001 -8.043000 -2.197000
19.773001 -9.554000 -1.913000
15.154000 -7.510000 -2.304000
17.993000 -8.800000 -2.080000
20.892000 -10.103000 -1.626000
14.062000 -7.081000 -2.415000
16.478001 -8.168000 -2.195000
19.809999 -9.708000 -1.909000
15.181000 -7.629000 -2.305000
18.010000 -8.933000 -2.076000
20.843000 -10.224000 -1.614000
14.068000 -7.184000 -2.413000
16.495001 -8.292000 -2.194000
19.865000 -9.871000 -1.907000
15.193000 -7.741000 -2.303000
18.055000 -9.079000 -2.075000
20.792999 -10.342000 -1.601000
14.071000 -7.285000 -2.411000
16.511999 -8.415000 -2.190000
19.891001 -10.022000 -1.901000
15.205000 -7.854000 -2.300000
18.099001 -9.226000 -2.074000
20.750000 -10.461000 -1.588000
14.092000 -7.394000 -2.410000
16.537001 -8.542000 -2.187000
19.922001 -10.173000 -1.895000
15.220000 -7.968000 -2.297000
18.129000 -9.367000 -2.069000
20.694000 -10.575000 -1.573000
14.103000 -7.499000 -2.408000
16.573999 -8.675000 -2.186000
19.959000 -10.327000 -1.889000
15.240000 -8.083000 -2.295000
18.173000 -9.513000 -2.066000
20.648001 -10.691000 -1.558000
14.119000 -7.606000 -2.406000
16.598000 -8.802000 -2.181000
20.011000 -10.491000 -1.883000
15.270000 -8.205000 -2.293000
18.219000 -9.661000 -2.063000
20.604000 -10.807000 -1.543000
14.146000 -7.718000 -2.405000
16.635000 -8.934000 -2.178000
20.084000 -10.665000 -1.880000
15.302000 -8.327000 -2.291000
18.292000 -9.824000 -2.061000
20.562000 -10.924000 -1.527000
14.161000 -7.824000 -2.402000
16.687000 -9.076000 -2.178000
20.150999 -10.835000 -1.874000
15.326000 -8.444000 -2.287000
18.332001 -9.969000 -2.055000
22.464001 -12.084000 -1.654000
14.183000 -7.932000 -2.399000
16.721001 -9.207000 -2.172000
20.222000 -11.009000 -1.867000
15.365000 -8.570000 -2.285000
18.353001 -10.103000 -2.047000
22.548000 -12.279000 -1.645000
14.206000 -8.042000 -2.396000
16.768999 -9.345000 -2.168000
20.270000 -11.169000 -1.858000
15.414000 -8.700000 -2.284000
18.421000 -10.263000 -2.042000
22.631001 -12.475000 -1.634000
14.238000 -8.156000 -2.394000
16.816000 -9.483000 -2.165000
20.344999 -11.344000 -1.851000
15.452000 -8.824000 -2.280000
18.497000 -10.427000 -2.038000
22.739000 -12.682000 -1.624000
14.257000 -8.262000 -2.388000
16.888000 -9.635000 -2.162000
20.471001 -11.550000 -1.847000
15.491000 -8.949000 -2.276000
18.572001 -10.591000 -2.033000
22.849001 -12.892000 -1.614000
14.291000 -8.375000 -2.385000
16.916000 -9.761000 -2.153000
20.559999 -11.733000 -1.839000
15.541000 -9.079000 -2.272000
18.645000 -10.754000 -2.026000
22.987000 -13.120000 -1.604000
14.338000 -8.497000 -2.383000
17.004999 -9.922000 -2.152000
20.666000 -11.925000 -1.831000
15.590000 -9.209000 -2.268000
18.728001 -10.922000 -2.020000
23.110001 -13.337000 -1.592000
14.372000 -8.610000 -2.379000
17.077000 -10.074000 -2.147000
20.750000 -12.108000 -1.820000
15.667000 -9.355000 -2.267000
18.816000 -11.092000 -2.013000
23.318001 -13.605000 -1.584000
14.435000 -8.740000 -2.378000
17.150000 -10.225000 -2.142000
20.851000 -12.297000 -1.810000
15.714000 -9.482000 -2.261000
18.889999 -11.255000 -2.004000
23.448999 -13.829000 -1.570000
14.475000 -8.856000 -2.372000
17.232000 -10.381000 -2.136000
20.990999 -12.510000 -1.802000
15.777000 -9.619000 -2.256000
18.981001 -11.427000 -1.996000
23.613001 -14.072000 -1.557000
14.521000 -8.974000 -2.367000
17.301001 -10.531000 -2.129000
21.100000 -12.706000 -1.789000
15.841000 -9.756000 -2.250000
19.076000 -11.600000 -1.987000
23.754999 -14.302000 -1.541000
14.584000 -9.102000 -2.364000
17.386000 -10.688000 -2.122000
21.245001 -12.922000 -1.779000
15.943000 -9.915000 -2.249000
19.205000 -11.796000 -1.980000
23.919001 -14.546000 -1.525000
14.640000 -9.226000 -2.359000
17.461000 -10.838000 -2.113000
21.402000 -13.145000 -1.769000
15.981000 -10.033000 -2.238000
19.299000 -11.968000 -1.969000
24.132000 -14.819000 -1.511000
14.708000 -9.356000 -2.355000
17.575001 -11.013000 -2.108000
21.548000 -13.363000 -1.756000
16.054001 -10.175000 -2.231000
19.429001 -12.162000 -1.961000
24.313999 -15.073000 -1.493000
14.782000 -9.489000 -2.351000
17.670000 -11.175000 -2.099000
21.724001 -13.598000 -1.745000
16.143999 -10.324000 -2.225000
19.538000 -12.344000 -1.948000
24.499001 -15.332000 -1.474000
14.838000 -9.610000 -2.343000
17.778000 -11.344000 -2.091000
21.917999 -13.844000 -1.733000
16.243999 -10.479000 -2.220000
19.666000 -12.535000 -1.937000
24.641001 -15.560000 -1.451000
14.923000 -9.748000 -2.339000
17.889999 -11.517000 -2.082000
22.031000 -14.040000 -1.714000
16.330000 -10.626000 -2.212000
19.806999 -12.735000 -1.925000
24.936001 -15.885000 -1.435000
14.978000 -9.865000 -2.329000
18.021000 -11.699000 -2.075000
22.184999 -14.260000 -1.696000
16.440001 -10.786000 -2.206000
19.940001 -12.930000 -1.912000
25.172001 -16.174000 -1.413000
15.084000 -10.015000 -2.327000
18.122999 -11.861000 -2.062000
22.351999 -14.486000 -1.678000
16.533001 -10.934000 -2.197000
20.096001 -13.137000 -1.899000
25.447001 -16.487000 -1.393000
15.171000 -10.152000 -2.319000
18.282000 -12.061000 -2.055000
22.573999 -14.750000 -1.663000
16.618000 -11.076000 -2.186000
20.280001 -13.362000 -1.888000
25.632999 -16.740999 -1.365000
15.266000 -10.292000 -2.313000
18.402000 -12.233000 -2.042000
22.775000 -14.998000 -1.644000
16.733999 -11.237000 -2.176000
20.430000 -13.564000 -1.872000
25.990000 -17.108000 -1.344000
15.362000 -10.432000 -2.306000
18.547001 -12.421000 -2.031000
22.954000 -15.230000 -1.622000
16.848000 -11.395000 -2.166000
20.608000 -13.783000 -1.857000
26.254000 -17.413000 -1.317000
15.449000 -10.565000 -2.295000
18.677999 -12.598000 -2.017000
23.202999 -15.509000 -1.603000
16.975000 -11.560000 -2.158000
20.784000 -13.999000 -1.841000
26.573000 -17.752001 -1.290000
15.541000 -10.698000 -2.285000
18.834999 -12.791000 -2.004000
23.443001 -15.779000 -1.582000
17.110001 -11.730000 -2.147000
20.966000 -14.219000 -1.823000
26.840000 -18.058001 -1.259000
15.676000 -10.861000 -2.281000
18.975000 -12.970000 -1.989000
23.680000 -16.046000 -1.559000
17.257999 -11.907000 -2.137000
21.167000 -14.449000 -1.805000
27.245001 -18.454000 -1.232000
15.794000 -11.010000 -2.271000
19.150999 -13.174000 -1.975000
23.945000 -16.332001 -1.536000
17.396000 -12.075000 -2.126000
21.354000 -14.668000 -1.785000
27.577000 -18.799999 -1.199000
15.910000 -11.154000 -2.261000
19.318001 -13.369000 -1.960000
24.225000 -16.625999 -1.512000
17.549999 -12.253000 -2.114000
21.605000 -14.930000 -1.768000
28.018999 -19.221001 -1.168000
16.052999 -11.317000 -2.254000
19.516001 -13.582000 -1.945000
24.556999 -16.952999 -1.489000
17.695000 -12.422000 -2.100000
21.802000 -15.152000 -1.746000
28.422001 -19.613001 -1.134000
16.187000 -11.470000 -2.243000
19.694000 -13.781000 -1.927000
24.826000 -17.236000 -1.460000
17.874001 -12.612000 -2.089000
22.040001 -15.400000 -1.725000
28.740000 -19.944000 -1.093000
16.319000 -11.621000 -2.231000
19.882000 -13.984000 -1.909000
25.173000 -17.570999 -1.433000
18.030001 -12.785000 -2.074000
22.287001 -15.653000 -1.702000
29.197001 -20.370001 -1.055000
16.455999 -11.772000 -2.219000
20.069000 -14.183000 -1.890000
25.483000 -17.877001 -1.403000
18.208000 -12.970000 -2.060000
22.539000 -15.906000 -1.678000
29.708000 -20.832001 -1.016000
16.627001 -11.946000 -2.210000
20.275000 -14.395000 -1.870000
25.872000 -18.237000 -1.374000
18.406000 -13.167000 -2.047000
22.805000 -16.167000 -1.655000
30.242001 -21.306999 -0.975000
16.785999 -12.108000 -2.198000
20.521000 -14.630000 -1.853000
26.224001 -18.568001 -1.341000
18.558001 -13.330000 -2.027000
23.090000 -16.438000 -1.629000
30.629999 -21.679001 -0.926000
16.914000 -12.245000 -2.181000
20.757999 -14.857000 -1.833000
26.617001 -18.924000 -1.308000
18.759001 -13.523000 -2.011000
23.396000 -16.719999 -1.604000
31.194000 -22.169001 -0.880000
17.073000 -12.402000 -2.167000
20.980000 -15.071000 -1.810000
26.964001 -19.246000 -1.269000
18.937000 -13.697000 -1.991000
23.705999 -17.003000 -1.576000
31.820999 -22.702000 -0.832000
17.240999 -12.561000 -2.152000
21.246000 -15.312000 -1.789000
27.445999 -19.660000 -1.236000
19.138000 -13.885000 -1.972000
24.082001 -17.330000 -1.551000
32.375999 -23.181999 -0.778000
17.440001 -12.741000 -2.140000
21.503000 -15.543000 -1.766000
27.893999 -20.045000 -1.198000
19.355000 -14.080000 -1.954000
24.375000 -17.593000 -1.519000
32.916000 -23.646000 -0.722000
17.641001 -12.918000 -2.127000
21.743000 -15.759000 -1.739000
28.320999 -20.412001 -1.155000
19.577999 -14.276000 -1.935000
24.730000 -17.896999 -1.489000
33.755001 -24.319000 -0.669000
17.825001 -13.080000 -2.111000
22.011000 -15.991000 -1.714000
28.754000 -20.778999 -1.111000
19.778999 -14.453000 -1.911000
