# This PCD file was generated using the MATLAB® pcwrite function
# from Computer Vision Toolbox®.
# .PCD v.7 - Point Cloud Data file format
VERSION .7
FIELDS x y z
SIZE 4 4 4
TYPE F F F
COUNT 1 1 1
WIDTH 1586
HEIGHT 1
VIEWPOINT 0 0 0 1 0 0 0
POINTS 1586
DATA ascii
17.740999 -1.767000 -1.382000
14.680000 -1.556000 -2.376000
16.325001 -1.707000 -2.086000
17.355000 -1.796000 -1.646000
15.776000 -1.703000 -2.278000
16.875999 -1.803000 -1.888000
17.761000 -1.878000 -1.384000
14.668000 -1.648000 -2.376000
16.332001 -1.809000 -2.089000
17.367001 -1.905000 -1.648000
15.732000 -1.797000 -2.273000
16.896999 -1.911000 -1.892000
17.732000 -1.983000 -1.384000
14.619000 -1.734000 -2.371000
16.316999 -1.909000 -2.089000
17.381001 -2.013000 -1.651000
15.750000 -1.897000 -2.278000
16.929001 -2.018000 -1.898000
17.740000 -2.092000 -1.386000
14.667000 -1.833000 -2.381000
16.361000 -2.016000 -2.096000
17.361000 -2.117000 -1.651000
15.768000 -1.998000 -2.284000
16.961000 -2.127000 -1.904000
17.757000 -2.203000 -1.389000
14.649000 -1.922000 -2.381000
16.344000 -2.115000 -2.097000
17.372000 -2.226000 -1.654000
15.765000 -2.097000 -2.286000
16.958000 -2.232000 -1.906000
17.777000 -2.314000 -1.392000
14.614000 -2.011000 -2.378000
16.344000 -2.218000 -2.099000
17.403999 -2.337000 -1.659000
15.758000 -2.195000 -2.287000
16.954000 -2.336000 -1.907000
17.780001 -2.423000 -1.394000
14.627000 -2.105000 -2.383000
16.353001 -2.320000 -2.103000
17.386999 -2.441000 -1.660000
15.652000 -2.278000 -2.275000
16.930000 -2.438000 -1.907000
17.747000 -2.528000 -1.393000
14.578000 -2.190000 -2.378000
16.323999 -2.418000 -2.102000
17.361000 -2.545000 -1.659000
15.660000 -2.378000 -2.279000
16.889000 -2.537000 -1.905000
17.789000 -2.643000 -1.399000
14.567000 -2.281000 -2.379000
16.357000 -2.526000 -2.109000
17.365999 -2.653000 -1.662000
15.646000 -2.474000 -2.280000
16.923000 -2.647000 -1.911000
17.792999 -2.753000 -1.401000
14.568000 -2.374000 -2.383000
16.337999 -2.624000 -2.109000
17.386999 -2.763000 -1.667000
15.629000 -2.570000 -2.281000
16.919001 -2.752000 -1.914000
17.805000 -2.864000 -1.404000
14.558000 -2.464000 -2.385000
16.323000 -2.724000 -2.110000
17.398001 -2.873000 -1.670000
15.557000 -2.657000 -2.273000
16.898001 -2.853000 -1.914000
17.774000 -2.968000 -1.404000
14.523000 -2.551000 -2.382000
16.325001 -2.827000 -2.113000
17.400000 -2.980000 -1.673000
15.559000 -2.755000 -2.277000
16.907000 -2.960000 -1.918000
17.822001 -3.086000 -1.410000
14.492000 -2.638000 -2.381000
16.320999 -2.929000 -2.116000
17.399000 -3.088000 -1.676000
15.493000 -2.841000 -2.271000
16.934999 -3.071000 -1.924000
17.820999 -3.196000 -1.412000
14.444000 -2.721000 -2.377000
16.319000 -3.031000 -2.119000
17.391001 -3.195000 -1.677000
15.508000 -2.943000 -2.276000
16.941999 -3.177000 -1.928000
17.816000 -3.304000 -1.414000
14.445000 -2.813000 -2.380000
16.350000 -3.140000 -2.126000
17.392000 -3.302000 -1.680000
15.483000 -3.035000 -2.276000
16.927000 -3.281000 -1.929000
17.799000 -3.411000 -1.415000
14.421000 -2.900000 -2.380000
16.334000 -3.239000 -2.127000
17.410999 -3.414000 -1.685000
15.478000 -3.133000 -2.279000
16.893000 -3.380000 -1.929000
17.813999 -3.523000 -1.419000
14.404000 -2.989000 -2.381000
16.327000 -3.341000 -2.130000
17.440001 -3.529000 -1.690000
15.458000 -3.227000 -2.280000
16.893000 -3.485000 -1.932000
17.816000 -3.635000 -1.421000
14.394000 -3.080000 -2.383000
16.351000 -3.449000 -2.137000
17.431000 -3.635000 -1.692000
15.415000 -3.316000 -2.277000
16.900999 -3.593000 -1.935000
17.849001 -3.752000 -1.427000
14.350000 -3.162000 -2.380000
16.356001 -3.553000 -2.141000
17.426001 -3.743000 -1.695000
15.386000 -3.408000 -2.277000
16.933001 -3.707000 -1.943000
17.893000 -3.872000 -1.433000
14.327000 -3.249000 -2.380000
16.356001 -3.657000 -2.145000
17.455000 -3.859000 -1.700000
15.367000 -3.502000 -2.277000
16.958000 -3.818000 -1.949000
17.896999 -3.984000 -1.435000
14.323000 -3.341000 -2.383000
16.339001 -3.757000 -2.146000
17.429001 -3.961000 -1.700000
15.375000 -3.602000 -2.283000
16.955999 -3.925000 -1.952000
17.910999 -4.099000 -1.439000
14.294000 -3.426000 -2.382000
16.379000 -3.869000 -2.154000
17.496000 -4.086000 -1.710000
15.370000 -3.699000 -2.286000
17.006001 -4.043000 -1.961000
17.934999 -4.216000 -1.443000
14.277000 -3.514000 -2.384000
16.429001 -3.986000 -2.165000
17.530001 -4.205000 -1.716000
15.363000 -3.795000 -2.289000
17.025000 -4.156000 -1.967000
17.966000 -4.336000 -1.448000
14.263000 -3.603000 -2.385000
16.461000 -4.099000 -2.173000
17.583000 -4.327000 -1.724000
15.291000 -3.876000 -2.281000
17.082001 -4.278000 -1.976000
18.091000 -4.479000 -1.461000
14.244000 -3.690000 -2.386000
16.509001 -4.215000 -2.183000
17.624001 -4.448000 -1.731000
15.321000 -3.982000 -2.290000
17.142000 -4.401000 -1.986000
18.268000 -4.637000 -1.477000
14.220000 -3.776000 -2.387000
16.478001 -4.313000 -2.183000
17.656000 -4.568000 -1.736000
15.262000 -4.064000 -2.286000
17.204000 -4.526000 -1.997000
18.518999 -4.817000 -1.500000
14.212000 -3.867000 -2.389000
16.455000 -4.411000 -2.183000
17.756001 -4.705000 -1.749000
15.297000 -4.173000 -2.294000
17.230000 -4.643000 -2.003000
18.650999 -4.968000 -1.513000
14.199000 -3.955000 -2.391000
16.485001 -4.525000 -2.190000
17.854000 -4.844000 -1.762000
15.280000 -4.267000 -2.296000
17.325001 -4.778000 -2.017000
18.900999 -5.153000 -1.536000
14.185000 -4.044000 -2.393000
16.480000 -4.630000 -2.194000
18.100000 -5.026000 -1.788000
15.263000 -4.360000 -2.297000
17.343000 -4.894000 -2.023000
19.236000 -5.366000 -1.564000
14.164000 -4.131000 -2.394000
16.399000 -4.712000 -2.186000
18.438999 -5.236000 -1.825000
15.245000 -4.454000 -2.298000
17.445000 -5.035000 -2.037000
19.759001 -5.636000 -1.609000
14.149000 -4.218000 -2.395000
16.434000 -4.828000 -2.194000
18.731001 -5.438000 -1.857000
15.237000 -4.551000 -2.301000
17.572001 -5.183000 -2.055000
20.093000 -5.858000 -1.639000
14.152000 -4.312000 -2.400000
16.417000 -4.929000 -2.196000
18.829000 -5.586000 -1.869000
15.179000 -4.631000 -2.296000
17.676001 -5.327000 -2.071000
20.146999 -6.002000 -1.645000
14.129000 -4.398000 -2.400000
16.410000 -5.031000 -2.198000
19.112000 -5.792000 -1.899000
15.208000 -4.740000 -2.303000
17.740999 -5.461000 -2.081000
20.209999 -6.147000 -1.652000
14.126000 -4.489000 -2.403000
16.386000 -5.130000 -2.197000
19.202999 -5.942000 -1.911000
15.188000 -4.832000 -2.304000
17.743999 -5.575000 -2.084000
20.438999 -6.347000 -1.673000
14.120000 -4.580000 -2.406000
16.370001 -5.231000 -2.199000
19.235001 -6.074000 -1.917000
15.155000 -4.920000 -2.303000
17.716000 -5.680000 -2.084000
20.555000 -6.514000 -1.684000
14.101000 -4.667000 -2.406000
16.332001 -5.324000 -2.197000
19.266001 -6.207000 -1.921000
15.130000 -5.011000 -2.302000
17.488001 -5.720000 -2.059000
20.525999 -6.634000 -1.683000
14.079000 -4.753000 -2.406000
16.320999 -5.427000 -2.198000
19.283001 -6.336000 -1.925000
15.114000 -5.104000 -2.302000
17.704000 -5.904000 -2.087000
20.510000 -6.760000 -1.684000
14.071000 -4.843000 -2.409000
16.322001 -5.533000 -2.200000
19.332001 -6.475000 -1.932000
15.109000 -5.201000 -2.305000
17.739000 -6.030000 -2.094000
20.521000 -6.895000 -1.685000
14.052000 -4.929000 -2.409000
16.308001 -5.634000 -2.202000
19.351000 -6.606000 -1.935000
15.093000 -5.295000 -2.305000
17.735001 -6.144000 -2.095000
21.230000 -7.268000 -1.744000
14.053000 -5.022000 -2.412000
16.297001 -5.737000 -2.202000
19.358000 -6.733000 -1.938000
15.080000 -5.389000 -2.306000
17.724001 -6.254000 -2.096000
21.209000 -7.396000 -1.744000
14.043000 -5.112000 -2.414000
16.298000 -5.843000 -2.205000
19.402000 -6.872000 -1.944000
15.069000 -5.485000 -2.308000
17.719999 -6.368000 -2.098000
21.313000 -7.569000 -1.752000
14.028000 -5.199000 -2.415000
16.277000 -5.941000 -2.205000
19.384001 -6.991000 -1.942000
15.069000 -5.584000 -2.310000
17.718000 -6.482000 -2.098000
21.301001 -7.700000 -1.751000
14.011000 -5.286000 -2.414000
16.275000 -6.047000 -2.206000
19.399000 -7.121000 -1.944000
15.053000 -5.676000 -2.310000
17.718000 -6.596000 -2.100000
21.308001 -7.840000 -1.753000
13.998000 -5.374000 -2.415000
16.260000 -6.147000 -2.205000
19.400999 -7.252000 -1.945000
15.034000 -5.773000 -2.309000
17.695000 -6.708000 -2.098000
21.294001 -7.983000 -1.750000
13.990000 -5.472000 -2.417000
16.261000 -6.263000 -2.208000
19.358000 -7.372000 -1.942000
15.034000 -5.880000 -2.312000
17.701000 -6.834000 -2.100000
21.290001 -8.128000 -1.749000
13.980000 -5.569000 -2.417000
16.252001 -6.375000 -2.207000
19.363001 -7.509000 -1.942000
15.025000 -5.984000 -2.313000
17.695000 -6.956000 -2.101000
21.319000 -8.288000 -1.751000
13.969000 -5.666000 -2.418000
16.254999 -6.490000 -2.209000
19.379000 -7.650000 -1.943000
15.022000 -6.090000 -2.313000
17.688000 -7.079000 -2.099000
21.320999 -8.438000 -1.750000
13.949000 -5.758000 -2.417000
16.253000 -6.605000 -2.210000
19.393999 -7.792000 -1.945000
15.022000 -6.198000 -2.315000
17.695000 -7.205000 -2.100000
21.305000 -8.579000 -1.746000
13.951000 -5.859000 -2.418000
16.254000 -6.721000 -2.210000
19.386999 -7.925000 -1.942000
15.017000 -6.302000 -2.315000
17.691999 -7.329000 -2.100000
21.270000 -8.713000 -1.742000
13.957000 -5.962000 -2.421000
16.253000 -6.836000 -2.210000
19.403000 -8.067000 -1.942000
15.002000 -6.404000 -2.314000
17.695999 -7.456000 -2.099000
21.264000 -8.859000 -1.738000
13.951000 -6.060000 -2.422000
16.254000 -6.952000 -2.211000
19.430000 -8.214000 -1.944000
15.015000 -6.516000 -2.316000
17.705000 -7.584000 -2.100000
21.205999 -8.982000 -1.730000
13.948000 -6.160000 -2.422000
16.261000 -7.070000 -2.211000
19.441000 -8.356000 -1.942000
15.016000 -6.624000 -2.317000
17.712000 -7.711000 -2.100000
21.207001 -9.130000 -1.728000
13.942000 -6.257000 -2.422000
16.275000 -7.191000 -2.212000
19.455999 -8.497000 -1.941000
15.012000 -6.730000 -2.315000
17.715000 -7.838000 -2.097000
21.179001 -9.265000 -1.721000
13.947000 -6.360000 -2.424000
16.271999 -7.305000 -2.211000
19.464001 -8.637000 -1.939000
15.017000 -6.839000 -2.316000
17.736000 -7.972000 -2.098000
21.134001 -9.392000 -1.712000
13.942000 -6.459000 -2.422000
16.271000 -7.420000 -2.209000
19.492001 -8.785000 -1.938000
15.023000 -6.949000 -2.317000
17.749001 -8.102000 -2.097000
21.099001 -9.524000 -1.705000
13.951000 -6.562000 -2.423000
16.285999 -7.542000 -2.209000
19.521000 -8.935000 -1.936000
15.025000 -7.057000 -2.315000
17.747999 -8.227000 -2.093000
21.051001 -9.648000 -1.695000
13.939000 -6.657000 -2.421000
16.295000 -7.661000 -2.208000
19.558001 -9.089000 -1.936000
15.031000 -7.167000 -2.314000
17.778000 -8.365000 -2.093000
21.010000 -9.775000 -1.685000
13.940000 -6.758000 -2.420000
16.306999 -7.782000 -2.206000
19.573999 -9.232000 -1.932000
15.045000 -7.280000 -2.315000
17.806999 -8.503000 -2.093000
20.969999 -9.902000 -1.676000
13.965000 -6.869000 -2.422000
16.320000 -7.902000 -2.205000
19.610001 -9.385000 -1.929000
15.046000 -7.387000 -2.312000
17.840000 -8.644000 -2.091000
20.920000 -10.022000 -1.664000
13.964000 -6.969000 -2.421000
16.334999 -8.024000 -2.203000
19.646999 -9.540000 -1.927000
15.055000 -7.498000 -2.310000
17.868999 -8.782000 -2.090000
20.877001 -10.146000 -1.652000
13.969000 -7.071000 -2.419000
16.367001 -8.155000 -2.202000
19.655001 -9.679000 -1.921000
15.078000 -7.616000 -2.311000
17.900000 -8.922000 -2.088000
20.823999 -10.264000 -1.640000
13.979000 -7.174000 -2.418000
16.371000 -8.270000 -2.198000
19.709000 -9.842000 -1.917000
15.084000 -7.725000 -2.307000
17.926001 -9.060000 -2.084000
20.773001 -10.381000 -1.627000
13.994000 -7.281000 -2.418000
16.399000 -8.399000 -2.197000
19.761000 -10.004000 -1.915000
15.104000 -7.840000 -2.305000
17.951000 -9.195000 -2.080000
20.724001 -10.498000 -1.612000
14.005000 -7.386000 -2.415000
16.438999 -8.533000 -2.196000
19.781000 -10.149000 -1.908000
15.128000 -7.958000 -2.305000
18.004000 -9.347000 -2.079000
20.686001 -10.620000 -1.599000
14.014000 -7.488000 -2.412000
16.473000 -8.664000 -2.194000
19.822001 -10.305000 -1.901000
15.158000 -8.079000 -2.303000
18.051001 -9.495000 -2.075000
20.636999 -10.735000 -1.584000
14.043000 -7.602000 -2.414000
16.479000 -8.780000 -2.188000
19.874001 -10.467000 -1.896000
15.175000 -8.192000 -2.299000
18.108999 -9.648000 -2.073000
20.589001 -10.849000 -1.567000
14.052000 -7.704000 -2.409000
16.542999 -8.928000 -2.188000
19.929001 -10.631000 -1.891000
15.216000 -8.319000 -2.299000
18.121000 -9.778000 -2.066000
22.249001 -11.873000 -1.680000
14.081000 -7.817000 -2.408000
16.587999 -9.064000 -2.185000
20.007000 -10.808000 -1.885000
15.235000 -8.434000 -2.294000
18.179001 -9.932000 -2.061000
22.136000 -11.961000 -1.658000
14.111000 -7.930000 -2.407000
16.622000 -9.195000 -2.181000
20.097000 -10.990000 -1.881000
15.273000 -8.558000 -2.292000
18.224001 -10.078000 -2.055000
22.355000 -12.229000 -1.658000
14.127000 -8.035000 -2.402000
16.658001 -9.326000 -2.175000
20.172001 -11.165000 -1.875000
15.304000 -8.678000 -2.288000
18.285999 -10.234000 -2.051000
22.480000 -12.445000 -1.650000
14.147000 -8.141000 -2.398000
16.705000 -9.464000 -2.171000
20.195000 -11.311000 -1.862000
15.356000 -8.810000 -2.286000
18.364000 -10.399000 -2.046000
22.580999 -12.649000 -1.641000
14.188000 -8.260000 -2.397000
16.761000 -9.606000 -2.168000
20.306999 -11.507000 -1.857000
15.399000 -8.936000 -2.282000
18.433001 -10.558000 -2.040000
22.681999 -12.854000 -1.629000
14.220000 -8.373000 -2.392000
16.830000 -9.755000 -2.164000
20.389999 -11.686000 -1.849000
15.441000 -9.062000 -2.279000
18.521000 -10.729000 -2.037000
22.797001 -13.066000 -1.617000
14.248000 -8.482000 -2.387000
16.899000 -9.904000 -2.159000
20.523001 -11.895000 -1.843000
15.504000 -9.199000 -2.275000
18.586000 -10.886000 -2.028000
22.952999 -13.303000 -1.609000
14.285000 -8.596000 -2.384000
16.976999 -10.059000 -2.156000
20.596001 -12.068000 -1.831000
15.542000 -9.321000 -2.268000
18.674000 -11.056000 -2.021000
23.131001 -13.553000 -1.598000
14.346000 -8.725000 -2.382000
17.007000 -10.184000 -2.146000
20.726000 -12.275000 -1.825000
15.617000 -9.465000 -2.267000
18.768000 -11.230000 -2.015000
23.271999 -13.781000 -1.585000
14.392000 -8.843000 -2.377000
17.129000 -10.364000 -2.145000
20.830999 -12.467000 -1.812000
15.689000 -9.607000 -2.263000
18.871000 -11.408000 -2.008000
23.431000 -14.021000 -1.573000
14.451000 -8.970000 -2.375000
17.202000 -10.515000 -2.138000
20.966000 -12.677000 -1.803000
15.741000 -9.735000 -2.256000
18.962000 -11.580000 -1.997000
23.589001 -14.261000 -1.557000
14.486000 -9.080000 -2.367000
17.257999 -10.654000 -2.128000
21.082001 -12.875000 -1.791000
15.825000 -9.883000 -2.253000
19.066999 -11.760000 -1.990000
23.721001 -14.483000 -1.539000
14.564000 -9.217000 -2.365000
17.368000 -10.826000 -2.123000
21.233000 -13.095000 -1.779000
15.880000 -10.012000 -2.243000
19.167999 -11.935000 -1.979000
23.948999 -14.766000 -1.528000
14.633000 -9.347000 -2.362000
17.447001 -10.978000 -2.114000
21.400999 -13.325000 -1.769000
15.968000 -10.161000 -2.238000
19.285999 -12.122000 -1.968000
24.097000 -14.999000 -1.506000
14.676000 -9.460000 -2.352000
17.549999 -11.144000 -2.107000
21.580000 -13.562000 -1.759000
16.062000 -10.314000 -2.235000
19.388000 -12.298000 -1.957000
24.271999 -15.247000 -1.487000
14.739000 -9.585000 -2.346000
17.653000 -11.310000 -2.097000
21.754999 -13.796000 -1.744000
16.132999 -10.451000 -2.224000
19.538000 -12.503000 -1.948000
24.473000 -15.514000 -1.469000
14.832000 -9.728000 -2.344000
17.775999 -11.487000 -2.089000
21.906000 -14.014000 -1.728000
16.232000 -10.604000 -2.218000
19.681000 -12.704000 -1.935000
24.697001 -15.794000 -1.447000
14.910000 -9.861000 -2.337000
17.892000 -11.660000 -2.081000
22.048000 -14.226000 -1.711000
16.341999 -10.764000 -2.213000
19.815001 -12.897000 -1.922000
24.941000 -16.084999 -1.427000
15.004000 -10.002000 -2.332000
18.009001 -11.832000 -2.069000
22.215000 -14.453000 -1.692000
16.400999 -10.890000 -2.198000
19.954000 -13.093000 -1.909000
25.219999 -16.400000 -1.408000
15.082000 -10.132000 -2.325000
18.132999 -12.008000 -2.059000
22.420000 -14.703000 -1.675000
16.520000 -11.053000 -2.191000
20.131001 -13.314000 -1.896000
25.444000 -16.680000 -1.381000
15.167000 -10.266000 -2.315000
18.277000 -12.196000 -2.050000
22.618000 -14.949000 -1.658000
16.645000 -11.220000 -2.185000
20.299999 -13.527000 -1.882000
25.798000 -17.042999 -1.361000
15.280000 -10.416000 -2.311000
18.429001 -12.388000 -2.038000
22.827000 -15.201000 -1.637000
16.757000 -11.376000 -2.173000
20.475000 -13.744000 -1.868000
26.047001 -17.337000 -1.335000
15.376000 -10.554000 -2.303000
18.568001 -12.570000 -2.025000
23.020000 -15.441000 -1.615000
16.896000 -11.549000 -2.165000
20.636000 -13.950000 -1.849000
26.353001 -17.667999 -1.306000
15.473000 -10.692000 -2.294000
18.719000 -12.758000 -2.013000
23.285000 -15.728000 -1.597000
17.007000 -11.702000 -2.154000
20.836000 -14.181000 -1.833000
26.726000 -18.042000 -1.280000
15.582000 -10.835000 -2.283000
18.875999 -12.950000 -1.998000
23.488001 -15.972000 -1.570000
17.160999 -11.883000 -2.145000
21.021999 -14.401000 -1.816000
26.976999 -18.334999 -1.248000
15.690000 -10.977000 -2.274000
19.049999 -13.150000 -1.985000
23.778000 -16.273001 -1.549000
17.302999 -12.053000 -2.132000
21.243999 -14.643000 -1.797000
27.398001 -18.740999 -1.218000
15.825000 -11.135000 -2.267000
19.188000 -13.324000 -1.967000
24.040001 -16.554001 -1.526000
17.450001 -12.226000 -2.121000
21.444000 -14.869000 -1.777000
27.789000 -19.125000 -1.185000
15.964000 -11.294000 -2.258000
19.382000 -13.536000 -1.952000
24.340000 -16.858999 -1.499000
17.604000 -12.400000 -2.109000
21.683001 -15.120000 -1.759000
28.149000 -19.487000 -1.151000
16.106001 -11.453000 -2.250000
19.606001 -13.765000 -1.939000
24.653000 -17.172001 -1.473000
17.771999 -12.583000 -2.095000
21.934000 -15.377000 -1.738000
28.573999 -19.893000 -1.113000
16.229000 -11.596000 -2.237000
19.757999 -13.943000 -1.918000
24.973000 -17.487000 -1.447000
17.936001 -12.761000 -2.082000
22.136000 -15.596000 -1.712000
28.958000 -20.266001 -1.073000
16.378000 -11.755000 -2.225000
19.972000 -14.161000 -1.900000
25.298000 -17.802999 -1.416000
18.112000 -12.944000 -2.068000
22.410000 -15.865000 -1.692000
29.385000 -20.669001 -1.034000
16.537001 -11.920000 -2.216000
20.160000 -14.358000 -1.879000
25.660000 -18.143000 -1.386000
18.291000 -13.127000 -2.052000
22.656000 -16.110001 -1.664000
29.888000 -21.122000 -0.990000
16.686001 -12.074000 -2.203000
20.367001 -14.566000 -1.860000
26.096001 -18.533001 -1.360000
18.476999 -13.313000 -2.036000
22.958000 -16.393000 -1.641000
30.378000 -21.563000 -0.946000
16.851000 -12.237000 -2.190000
20.620001 -14.804000 -1.840000
26.375999 -18.809000 -1.319000
18.658001 -13.492000 -2.019000
23.240000 -16.659000 -1.616000
31.009001 -22.101999 -0.904000
16.987000 -12.376000 -2.173000
20.841000 -15.015000 -1.817000
26.804001 -19.187000 -1.286000
18.837999 -13.667000 -1.998000
23.566000 -16.952000 -1.588000
31.452000 -22.504000 -0.849000
17.165001 -12.544000 -2.161000
21.114000 -15.262000 -1.799000
27.205999 -19.542999 -1.251000
19.028000 -13.845000 -1.979000
23.892000 -17.242001 -1.560000
32.105000 -23.051001 -0.800000
17.343000 -12.707000 -2.145000
21.365999 -15.489000 -1.774000
27.686001 -19.952000 -1.212000
19.261999 -14.053000 -1.964000
24.246000 -17.549000 -1.534000
32.766998 -23.601999 -0.748000
17.535000 -12.877000 -2.131000
21.608000 -15.705000 -1.748000
28.184999 -20.370001 -1.174000
19.482000 -14.247000 -1.943000
24.555000 -17.819000 -1.499000
33.464001 -24.174999 -0.690000
17.725000 -13.043000 -2.116000
21.900999 -15.954000 -1.725000
28.584000 -20.711000 -1.131000
19.688000 -14.426000 -1.920000
24.943001 -18.142000 -1.469000
34.048000 -24.660000 -0.629000
17.940001 -13.223000 -2.101000
22.160999 -16.176001 -1.696000
29.007999 -21.066000 -1.082000
19.931000 -14.629000 -1.901000
25.337999 -18.465000 -1.438000
35.174000 -25.533001 -0.575000
18.141001 -13.389000 -2.084000
22.474001 -16.431000 -1.671000
29.563999 -21.511000 -1.039000
20.170000 -14.825000 -1.878000
25.754999 -18.799999 -1.403000
35.493000 -25.816000 -0.499000
18.332001 -13.544000 -2.066000
22.798000 -16.690001 -1.646000
30.122999 -21.954000 -0.994000
20.407000 -15.015000 -1.854000
26.132000 -19.101000 -1.366000
36.465000 -26.566000 -0.432000
18.521000 -13.694000 -2.043000
23.098000 -16.926001 -1.614000
30.669001 -22.379999 -0.944000
20.683001 -15.229000 -1.834000
26.608999 -19.469999 -1.333000
37.270000 -27.188999 -0.361000
18.728001 -13.852000 -2.024000
23.457001 -17.201000 -1.586000
31.330000 -22.885000 -0.891000
20.934000 -15.419000 -1.807000
27.000000 -19.770000 -1.290000
37.889000 -27.667999 -0.282000
18.955000 -14.021000 -2.006000
23.782000 -17.445999 -1.556000
31.892000 -23.312000 -0.838000
21.225000 -15.635000 -1.783000
27.503000 -20.145000 -1.252000
39.021000 -28.514000 -0.199000
19.177000 -14.180000 -1.983000
24.163000 -17.726000 -1.524000
32.507999 -23.770000 -0.781000
21.490000 -15.826000 -1.758000
27.886999 -20.427999 -1.209000
40.221001 -29.402000 -0.117000
19.416000 -14.348000 -1.963000
24.568001 -18.018000 -1.494000
33.231998 -24.299999 -0.721000
21.782000 -16.032000 -1.730000
28.406000 -20.802000 -1.164000
40.448002 -29.570000 -0.028000
19.648001 -14.507000 -1.942000
24.871000 -18.230000 -1.457000
34.042000 -24.884001 -0.664000
22.107000 -16.257000 -1.705000
28.916000 -21.163000 -1.120000
40.389999 -29.518999 0.066000
19.912001 -14.683000 -1.920000
25.271999 -18.507000 -1.421000
34.797001 -25.421000 -0.600000
22.389000 -16.445000 -1.676000
29.385000 -21.487000 -1.073000
40.383999 -29.497999 0.156000
20.160000 -14.843000 -1.897000
25.663000 -18.768999 -1.385000
35.520000 -25.924999 -0.530000
22.698000 -16.646000 -1.646000
29.858000 -21.806000 -1.020000
40.365002 -29.457001 0.244000
20.415001 -15.003000 -1.874000
26.146999 -19.094000 -1.353000
36.220001 -26.403000 -0.460000
23.010000 -16.844000 -1.616000
30.539000 -22.270000 -0.975000
40.397999 -29.445000 0.338000
20.677999 -15.162000 -1.848000
26.577999 -19.372000 -1.313000
37.314999 -27.159000 -0.392000
23.371000 -17.070999 -1.589000
31.098000 -22.635000 -0.925000
40.358002 -29.371000 0.427000
20.966000 -15.335000 -1.826000
26.987000 -19.628000 -1.273000
38.042000 -27.635000 -0.312000
23.761999 -17.313999 -1.559000
31.702999 -23.025000 -0.870000
40.391998 -29.340000 0.514000
21.219000 -15.477000 -1.800000
27.480000 -19.936001 -1.236000
38.772999 -28.105000 -0.233000
24.099001 -17.511000 -1.527000
32.417999 -23.486000 -0.817000
40.391998 -29.275999 0.606000
21.497000 -15.630000 -1.773000
27.971001 -20.235001 -1.193000
39.757999 -28.747000 -0.154000
24.483000 -17.735001 -1.497000
33.005001 -23.844999 -0.762000
40.421001 -29.225000 0.694000
21.792000 -15.791000 -1.747000
28.362000 -20.455000 -1.147000
40.494999 -29.197001 -0.065000
24.816000 -17.915001 -1.460000
33.660000 -24.243000 -0.700000
40.450001 -29.164000 0.779000
22.079000 -15.940000 -1.722000
28.827000 -20.719000 -1.104000
40.569000 -29.160000 0.021000
25.208000 -18.131001 -1.427000
34.472000 -24.743999 -0.643000
40.437000 -29.063999 0.869000
22.378000 -16.090000 -1.693000
29.357000 -21.021999 -1.058000
40.554001 -29.049999 0.104000
25.589001 -18.332001 -1.394000
35.084999 -25.090000 -0.581000
40.473999 -28.992001 0.955000
22.684000 -16.240000 -1.666000
29.825001 -21.271000 -1.011000
40.580002 -28.959000 0.193000
25.976000 -18.528999 -1.357000
35.919998 -25.584000 -0.516000
40.500999 -28.903000 1.037000
22.983999 -16.379000 -1.639000
30.329000 -21.538000 -0.966000
40.605999 -28.861000 0.278000
26.393000 -18.740999 -1.322000
36.685001 -26.018000 -0.451000
40.557999 -28.827999 1.125000
23.297001 -16.520000 -1.609000
30.910999 -21.850000 -0.917000
40.645000 -28.764000 0.359000
26.802000 -18.938999 -1.287000
37.554001 -26.511999 -0.386000
40.581001 -28.719999 1.207000
23.621000 -16.664000 -1.581000
31.434999 -22.113001 -0.868000
40.685001 -28.659000 0.445000
27.212999 -19.131001 -1.248000
38.511002 -27.056000 -0.317000
40.618000 -28.615000 1.287000
23.959000 -16.809999 -1.554000
32.019001 -22.407000 -0.820000
40.692001 -28.524000 0.526000
27.608999 -19.304001 -1.209000
39.064999 -27.302999 -0.241000
40.646000 -28.493000 1.371000
24.306000 -16.955999 -1.524000
32.610001 -22.697001 -0.770000
40.769001 -28.430000 0.604000
28.065001 -19.511999 -1.174000
40.036999 -27.830000 -0.171000
40.688999 -28.375999 1.450000
24.576000 -17.041000 -1.491000
33.229000 -22.993999 -0.716000
40.301998 -27.950001 0.678000
28.476999 -19.679001 -1.132000
40.532001 -28.013000 -0.095000
40.695999 -28.226000 1.524000
24.978001 -17.212000 -1.466000
33.881001 -23.306000 -0.665000
40.779999 -28.118999 0.763000
28.913000 -19.856001 -1.093000
40.820999 -28.044001 -0.014000
41.001999 -28.275000 1.615000
25.294001 -17.316000 -1.433000
34.263000 -23.422001 -0.609000
41.367001 -28.353001 0.847000
29.318001 -20.004000 -1.053000
41.459999 -28.305000 0.061000
41.651001 -28.549999 1.716000
25.660000 -17.447001 -1.404000
35.070999 -23.816999 -0.555000
42.203999 -28.743000 0.944000
29.813999 -20.204000 -1.013000
40.472000 -27.448999 0.131000
42.431000 -28.900999 1.820000
26.021000 -17.568001 -1.375000
35.666000 -24.056999 -0.500000
40.766998 -27.583000 0.984000
30.177000 -20.306999 -0.969000
40.971001 -27.599001 0.208000
43.049999 -29.129000 1.924000
26.364000 -17.670000 -1.342000
36.216000 -24.254999 -0.445000
41.194000 -27.681000 1.063000
30.679001 -20.495001 -0.932000
40.582001 -27.145000 0.277000
41.471001 -27.871000 1.923000
26.750999 -17.795000 -1.313000
37.356998 -24.836000 -0.391000
40.834000 -27.243000 1.126000
31.136999 -20.643999 -0.888000
41.178001 -27.341999 0.349000
44.570999 -29.740999 2.137000
27.125000 -17.903000 -1.284000
37.596001 -24.806999 -0.329000
41.529999 -27.506001 1.212000
31.620001 -20.802000 -0.848000
40.910999 -26.958000 0.418000
41.578999 -27.539000 2.063000
27.375999 -17.922001 -1.246000
38.578999 -25.257000 -0.276000
44.743999 -29.409000 1.375000
32.073002 -20.931000 -0.807000
40.985001 -26.798000 0.484000
44.715000 -29.391001 2.288000
27.850000 -18.083000 -1.221000
39.155998 -25.427999 -0.213000
41.032001 -26.756001 1.328000
32.582001 -21.087000 -0.764000
41.047001 -26.622000 0.547000
44.770000 -29.195999 2.356000
28.190001 -18.149000 -1.190000
39.622002 -25.518000 -0.153000
41.339001 -26.738001 1.401000
33.112000 -21.249001 -0.724000
41.388000 -26.618999 0.618000
44.844002 -29.006001 2.429000
28.513000 -18.195000 -1.156000
40.380001 -25.784000 -0.097000
41.964001 -26.916000 1.481000
33.306000 -21.186001 -0.678000
41.977001 -26.768000 0.689000
44.921001 -28.813999 2.496000
28.854000 -18.249001 -1.124000
40.939999 -25.912001 -0.034000
45.050999 -28.646999 1.657000
33.868000 -21.351000 -0.636000
41.747002 -26.388000 0.743000
44.992001 -28.610001 2.560000
29.132000 -18.254999 -1.091000
41.347000 -25.934999 0.025000
45.115002 -28.434999 1.722000
34.445999 -21.517000 -0.596000
41.250000 -25.837999 0.795000
45.087002 -28.416000 2.628000
29.476999 -18.297001 -1.058000
42.340000 -26.313000 0.083000
41.479000 -25.906000 1.636000
34.852001 -21.565001 -0.555000
42.178001 -26.176001 0.870000
45.115002 -28.177000 2.687000
29.868999 -18.363001 -1.029000
42.747002 -26.313999 0.144000
42.317001 -26.181999 1.727000
35.410000 -21.698000 -0.512000
45.255001 -27.819000 0.990000
44.834000 -27.739000 2.723000
30.257999 -18.419001 -1.002000
43.181999 -26.325001 0.203000
45.359001 -27.799000 1.907000
35.832001 -21.742001 -0.470000
44.004002 -26.785999 1.022000
45.213001 -27.705000 2.804000
30.580999 -18.427999 -0.971000
43.373001 -26.180000 0.257000
45.444000 -27.579000 1.963000
36.247002 -21.774000 -0.428000
45.576000 -27.469000 1.113000
45.380001 -27.535999 2.865000
30.915001 -18.437000 -0.938000
43.544998 -26.016001 0.315000
44.033001 -26.454000 1.956000
37.068001 -22.037001 -0.393000
44.035000 -26.271000 1.125000
45.451000 -27.302999 2.918000
31.275999 -18.459000 -0.910000
43.758999 -25.875000 0.369000
44.138000 -26.247999 2.010000
37.374001 -21.985001 -0.348000
44.205002 -26.097000 1.183000
45.578999 -27.098000 2.977000
31.482000 -18.381001 -0.878000
43.643002 -25.534000 0.415000
44.227001 -26.025000 2.059000
37.523998 -21.837000 -0.306000
44.348999 -25.907000 1.235000
45.640999 -26.851000 3.028000
31.652000 -18.278000 -0.843000
43.687000 -25.283001 0.467000
44.310001 -25.795000 2.111000
38.431999 -22.121000 -0.272000
44.445000 -25.681999 1.282000
45.751999 -26.628000 3.077000
31.990999 -18.268999 -0.815000
43.535999 -24.920000 0.512000
44.426998 -25.583000 2.161000
39.118999 -22.264999 -0.231000
44.542999 -25.454000 1.333000
45.855000 -26.396000 3.129000
32.299000 -18.236000 -0.789000
43.499001 -24.618999 0.554000
44.486000 -25.332001 2.203000
39.362000 -22.150999 -0.191000
44.610001 -25.205999 1.378000
44.367001 -25.256001 3.067000
32.543999 -18.160999 -0.757000
43.646000 -24.420000 0.602000
44.573002 -25.093000 2.251000
39.349998 -21.888000 -0.153000
44.839001 -25.045000 1.425000
46.016998 -25.896000 3.218000
32.861000 -18.124001 -0.731000
44.865002 -24.811001 0.661000
44.650002 -24.849001 2.293000
40.009998 -21.992001 -0.115000
44.786999 -24.723000 1.466000
46.134998 -25.660999 3.267000
21.538000 -11.737000 -0.458000
46.412998 -25.363001 0.724000
44.757000 -24.615000 2.333000
40.339001 -21.908001 -0.078000
44.924999 -24.506001 1.509000
46.226002 -25.410000 3.308000
22.559000 -12.143000 -0.457000
44.109001 -23.812000 0.729000
44.854000 -24.371000 2.376000
40.722000 -21.847000 -0.044000
44.183998 -23.809000 1.518000
46.345001 -25.167999 3.348000
33.819000 -17.981001 -0.655000
44.084999 -23.509001 0.765000
44.943001 -24.124001 2.415000
40.879002 -21.658001 -0.006000
44.020000 -23.427999 1.549000
46.438000 -24.909000 3.390000
25.035999 -13.144000 -0.464000
44.147999 -23.247999 0.799000
45.380001 -24.056000 2.468000
41.082001 -21.492001 0.026000
44.167000 -23.212999 1.587000
46.530998 -24.649000 3.427000
26.503000 -13.735000 -0.467000
44.400002 -23.083000 0.840000
45.346001 -23.733000 2.500000
26.783001 -13.832000 0.037000
44.438999 -23.058001 1.625000
46.810001 -24.481001 3.474000
27.820999 -14.232000 -0.467000
46.771999 -24.004000 0.919000
45.669998 -23.597000 2.547000
28.209999 -14.379000 0.061000
45.349998 -23.225000 1.692000
46.786999 -24.153000 3.502000
34.917000 -17.627001 -0.561000
44.880001 -22.731001 0.911000
46.002998 -23.459000 2.591000
42.889000 -21.573000 0.124000
44.501999 -22.492001 1.688000
46.917999 -23.903999 3.538000
35.167000 -17.514000 -0.537000
44.623001 -22.298000 0.937000
45.679001 -22.983000 2.602000
43.263000 -21.466999 0.153000
44.622002 -22.250000 1.718000
47.057999 -23.657000 3.573000
35.431000 -17.406000 -0.516000
44.681999 -22.027000 0.966000
46.117001 -22.892000 2.651000
43.673000 -21.374001 0.185000
44.714001 -21.990999 1.749000
47.185001 -23.398001 3.603000
29.672001 -14.375000 -0.413000
29.563999 -14.373000 0.655000
46.235001 -22.636999 2.681000
43.931999 -21.202999 0.213000
45.835999 -22.233000 1.817000
47.338001 -23.149000 3.638000
35.959000 -17.174999 -0.476000
47.470001 -22.754000 1.081000
45.807999 -22.115000 2.676000
44.080002 -20.974001 0.238000
46.013000 -22.004000 1.846000
47.486000 -22.898001 3.669000
36.286999 -17.086000 -0.458000
47.571999 -22.481001 1.108000
46.008999 -21.895000 2.711000
44.280998 -20.767000 0.267000
46.099998 -21.730000 1.874000
47.595001 -22.622000 3.694000
36.347000 -16.865999 -0.439000
47.530998 -22.136999 1.129000
46.049999 -21.601000 2.732000
44.627998 -20.627001 0.292000
47.667999 -22.143999 1.959000
47.686001 -22.336000 3.721000
36.571999 -16.719000 -0.420000
47.803001 -21.934999 1.161000
46.238998 -21.372000 2.759000
44.344002 -20.191999 0.310000
46.598000 -21.327000 1.932000
47.797001 -22.059999 3.745000
36.817001 -16.580999 -0.403000
47.893002 -21.650999 1.184000
46.386002 -21.118999 2.787000
44.588001 -19.997000 0.335000
47.866001 -21.577999 2.006000
47.897999 -21.775000 3.765000
36.915001 -16.372999 -0.388000
48.015999 -21.377001 1.205000
46.375999 -20.798000 2.802000
44.748001 -19.764000 0.356000
46.573002 -20.677000 1.968000
48.014000 -21.495001 3.790000
37.365002 -16.316000 -0.373000
48.120998 -21.093000 1.228000
47.995998 -21.193001 2.912000
45.125999 -19.622000 0.377000
48.105999 -21.027000 2.048000
48.124001 -21.212999 3.811000
37.571999 -16.150999 -0.358000
48.222000 -20.809000 1.249000
48.089001 -20.902000 2.934000
46.007000 -19.688999 0.404000
48.221001 -20.743999 2.070000
48.214001 -20.917999 3.827000
37.730000 -15.960000 -0.345000
48.352001 -20.533001 1.267000
48.226002 -20.629999 2.955000
46.317001 -19.507000 0.424000
48.340000 -20.466000 2.089000
48.354000 -20.643000 3.850000
37.848999 -15.751000 -0.329000
48.455002 -20.243999 1.287000
48.328999 -20.341000 2.970000
40.993000 -16.983000 0.388000
48.421001 -20.166000 2.103000
48.471001 -20.358999 3.868000
38.028999 -15.568000 -0.317000
41.391998 -17.011000 1.111000
48.466000 -20.063000 2.991000
41.105000 -16.747999 0.404000
48.546001 -19.884001 2.123000
48.592999 -20.073000 3.884000
37.998001 -15.296000 -0.305000
48.688999 -19.676001 1.318000
48.562000 -19.770000 3.006000
41.169998 -16.495001 0.417000
48.689999 -19.610001 2.140000
48.721001 -19.787001 3.904000
38.009998 -15.040000 -0.291000
47.240002 -18.766001 1.293000
48.672001 -19.479000 3.020000
39.726002 -15.644000 0.412000
48.800999 -19.320000 2.153000
48.835999 -19.497000 3.919000
38.245998 -14.874000 -0.281000
48.894001 -19.090000 1.350000
48.794998 -19.190001 3.037000
47.319000 -18.309999 0.505000
48.896000 -19.021000 2.168000
48.938999 -19.198999 3.930000
38.355000 -14.655000 -0.272000
49.035000 -18.812000 1.364000
48.891998 -18.893999 3.050000
42.783001 -16.264000 0.467000
47.594002 -18.188999 2.119000
49.042000 -18.899000 3.944000
38.431999 -14.422000 -0.261000
49.171001 -18.525000 1.377000
49.032001 -18.610001 3.061000
47.562000 -17.757000 0.528000
47.763000 -17.927999 2.133000
49.182999 -18.615000 3.959000
38.490002 -14.184000 -0.252000
49.268002 -18.226999 1.389000
49.139000 -18.312000 3.075000
41.748001 -15.301000 0.473000
49.263000 -18.150999 2.207000
49.286999 -18.313999 3.968000
38.631001 -13.973000 -0.245000
49.389999 -17.938000 1.400000
49.262001 -18.021000 3.087000
40.848000 -14.695000 0.471000
49.368999 -17.854000 2.217000
49.405998 -18.016001 3.981000
38.757999 -13.767000 -0.236000
49.476002 -17.657000 1.407000
49.362999 -17.745001 3.094000
41.201000 -14.574000 0.481000
49.314999 -17.551001 2.219000
49.493999 -17.771999 3.989000
38.858002 -13.590000 -0.230000
41.185001 -14.471000 1.176000
49.462002 -17.518000 3.105000
41.318001 -14.401000 0.487000
49.144001 -17.231001 2.213000
49.592999 -17.546000 3.997000
38.907001 -13.404000 -0.227000
41.317001 -14.300000 1.185000
49.534000 -17.284000 3.111000
41.352001 -14.197000 0.491000
49.634998 -17.142000 2.240000
49.674999 -17.313000 4.004000
38.862999 -13.186000 -0.220000
41.403000 -14.115000 1.190000
49.653000 -17.063000 3.118000
41.515999 -14.036000 0.499000
49.721001 -16.912001 2.246000
49.726002 -17.066999 4.006000
38.937000 -13.010000 -0.216000
41.401001 -13.897000 1.192000
49.730999 -16.827000 3.126000
41.497002 -13.815000 0.502000
49.827999 -16.687000 2.252000
49.879002 -16.855000 4.019000
39.077000 -12.855000 -0.212000
41.456001 -13.699000 1.198000
49.816002 -16.596001 3.132000
41.587002 -13.628000 0.506000
49.942001 -16.462999 2.260000
49.967999 -16.622000 4.026000
39.120998 -12.664000 -0.207000
41.550999 -13.515000 1.203000
49.915001 -16.365999 3.136000
43.792999 -14.122000 0.538000
50.029999 -16.232000 2.266000
50.060001 -16.388000 4.030000
39.252998 -12.505000 -0.204000
41.653999 -13.331000 1.207000
50.015999 -16.135000 3.144000
44.987000 -14.275000 0.556000
50.106998 -15.994000 2.269000
50.152000 -16.152000 4.037000
39.316002 -12.323000 -0.201000
41.750000 -13.144000 1.213000
50.105999 -15.903000 3.150000
45.007000 -14.048000 0.557000
50.227001 -15.770000 2.277000
50.241001 -15.918000 4.043000
38.931000 -12.001000 -0.197000
45.237000 -14.008000 1.316000
50.182999 -15.664000 3.152000
45.061001 -13.830000 0.562000
50.299000 -15.532000 2.281000
50.323002 -15.679000 4.045000
39.083000 -11.845000 -0.193000
42.042000 -12.802000 1.224000
50.273998 -15.429000 3.159000
43.231998 -13.047000 0.542000
50.384998 -15.296000 2.283000
50.472000 -15.459000 4.057000
39.220001 -11.686000 -0.191000
42.057999 -12.589000 1.224000
50.367001 -15.196000 3.163000
42.736000 -12.676000 0.536000
50.492001 -15.065000 2.290000
50.459000 -15.192000 4.053000
39.389000 -11.533000 -0.190000
42.237999 -12.423000 1.232000
50.453999 -14.960000 3.167000
42.716999 -12.449000 0.539000
50.591999 -14.833000 2.294000
50.659000 -14.986000 4.064000
39.555000 -11.378000 -0.187000
42.167000 -12.186000 1.231000
50.567001 -14.730000 3.171000
43.698002 -12.512000 0.553000
50.692001 -14.599000 2.296000
50.741001 -14.743000 4.069000
39.727001 -11.224000 -0.186000
42.306999 -12.008000 1.234000
50.660999 -14.492000 3.176000
43.285000 -12.172000 0.549000
50.785999 -14.362000 2.301000
50.852001 -14.511000 4.075000
39.971001 -11.088000 -0.186000
42.410000 -11.817000 1.238000
50.762001 -14.259000 3.181000
43.632999 -12.043000 0.555000
50.873001 -14.126000 2.304000
50.914001 -14.262000 4.075000
22.427000 -6.106000 -0.102000
42.423000 -11.604000 1.238000
50.856998 -14.021000 3.183000
43.877998 -11.887000 0.559000
50.966000 -13.888000 2.305000
51.012001 -14.022000 4.080000
22.056000 -5.893000 -0.100000
43.064999 -11.558000 1.256000
50.945000 -13.780000 3.187000
43.428001 -11.544000 0.554000
51.046001 -13.645000 2.309000
51.091000 -13.779000 4.083000
21.781000 -5.708000 -0.098000
44.071999 -11.601000 1.286000
51.057999 -13.548000 3.192000
43.421001 -11.319000 0.553000
51.143002 -13.409000 2.312000
51.199001 -13.541000 4.086000
21.790001 -5.599000 -0.097000
42.588001 -10.993000 1.242000
51.132999 -13.302000 3.192000
22.659000 -5.791000 0.289000
51.257000 -13.177000 2.315000
51.301998 -13.301000 4.091000
21.832001 -5.499000 -0.097000
42.702000 -10.803000 1.244000
51.222000 -13.060000 3.196000
22.542000 -5.646000 0.288000
51.337002 -12.933000 2.316000
51.388000 -13.058000 4.094000
21.868000 -5.397000 -0.097000
42.777000 -10.602000 1.246000
51.338001 -12.826000 3.200000
22.160000 -5.437000 0.282000
51.433998 -12.692000 2.319000
51.485001 -12.817000 4.097000
21.916000 -5.297000 -0.096000
42.777000 -10.385000 1.246000
51.425999 -12.582000 3.201000
21.919001 -5.266000 0.280000
51.544998 -12.457000 2.322000
51.594002 -12.577000 4.100000
21.952000 -5.195000 -0.096000
42.985001 -10.216000 1.250000
51.547001 -12.345000 3.207000
21.938000 -5.160000 0.280000
51.636002 -12.214000 2.323000
51.693001 -12.332000 4.105000
21.993000 -5.094000 -0.096000
22.754999 -5.291000 0.661000
51.612000 -12.097000 3.207000
21.975000 -5.057000 0.280000
51.720001 -11.968000 2.326000
51.765999 -12.084000 4.106000
22.024000 -4.988000 -0.095000
22.577999 -5.136000 0.656000
51.722000 -11.857000 3.209000
22.011000 -4.953000 0.281000
51.841000 -11.733000 2.329000
51.851002 -11.836000 4.107000
22.068001 -4.887000 -0.095000
22.180000 -4.932000 0.643000
51.810001 -11.610000 3.213000
22.056999 -4.852000 0.281000
51.925999 -11.486000 2.329000
51.891998 -11.576000 4.107000
22.111000 -4.786000 -0.095000
22.042000 -4.789000 0.639000
51.903000 -11.367000 3.215000
22.097000 -4.749000 0.281000
52.007999 -11.238000 2.331000
52.047001 -11.344000 4.114000
20.337999 -4.299000 -0.088000
22.082001 -4.686000 0.639000
51.999001 -11.121000 3.216000
22.136999 -4.645000 0.282000
22.910000 -4.834000 1.026000
52.169998 -11.102000 4.118000
19.990000 -4.125000 -0.086000
22.120001 -4.583000 0.640000
52.116001 -10.879000 3.220000
22.183001 -4.543000 0.282000
22.677000 -4.670000 1.013000
52.263000 -10.853000 4.121000
19.495001 -3.925000 -0.084000
22.173000 -4.482000 0.640000
52.226002 -10.637000 3.223000
22.232000 -4.441000 0.282000
22.240999 -4.466000 0.993000
52.355000 -10.605000 4.124000
19.362000 -3.801000 -0.084000
22.215000 -4.377000 0.641000
52.327999 -10.392000 3.226000
20.480000 -3.987000 0.259000
22.207001 -4.348000 0.991000
52.448002 -10.354000 4.125000
19.302000 -3.692000 -0.083000
22.261000 -4.275000 0.641000
52.435001 -10.146000 3.228000
20.188000 -3.830000 0.255000
22.261000 -4.245000 0.991000
52.553001 -10.105000 4.130000
19.183001 -3.574000 -0.083000
22.298000 -4.169000 0.641000
23.024000 -4.337000 1.416000
19.618999 -3.624000 0.248000
22.281000 -4.135000 0.992000
52.619999 -9.850000 4.131000
19.132999 -3.468000 -0.083000
22.360001 -4.067000 0.643000
22.722000 -4.165000 1.396000
19.500000 -3.502000 0.246000
22.323000 -4.031000 0.992000
52.705002 -9.596000 4.132000
19.089001 -3.364000 -0.082000
20.355000 -3.601000 0.584000
22.337999 -3.981000 1.370000
19.415001 -3.390000 0.244000
22.378000 -3.929000 0.994000
52.799999 -9.343000 4.136000
19.032000 -3.260000 -0.082000
20.167999 -3.466000 0.578000
22.344999 -3.868000 1.370000
19.413000 -3.293000 0.244000
22.406000 -3.819000 0.994000
52.886002 -9.090000 4.139000
19.002001 -3.160000 -0.082000
19.906000 -3.320000 0.570000
22.379999 -3.762000 1.371000
19.405001 -3.195000 0.243000
22.476000 -3.718000 0.996000
23.157000 -3.862000 1.810000
18.950001 -3.056000 -0.082000
19.799000 -3.204000 0.566000
22.438000 -3.658000 1.372000
19.379000 -3.093000 0.243000
22.504999 -3.610000 0.996000
22.718000 -3.672000 1.774000
18.907000 -2.955000 -0.082000
19.761999 -3.098000 0.564000
22.464001 -3.548000 1.373000
19.365000 -2.994000 0.242000
20.573999 -3.196000 0.909000
22.483000 -3.521000 1.754000
18.822001 -2.848000 -0.082000
19.846001 -3.012000 0.567000
22.511999 -3.442000 1.375000
19.368000 -2.898000 0.242000
20.511000 -3.083000 0.906000
22.503000 -3.410000 1.754000
18.805000 -2.751000 -0.082000
20.065001 -2.945000 0.572000
22.551001 -3.334000 1.375000
19.320000 -2.794000 0.241000
20.483999 -2.977000 0.904000
22.556999 -3.304000 1.756000
18.788000 -2.656000 -0.082000
20.129000 -2.853000 0.573000
22.597000 -3.226000 1.377000
19.332001 -2.700000 0.241000
20.504000 -2.876000 0.904000
22.599001 -3.194000 1.758000
18.775999 -2.562000 -0.082000
20.278000 -2.772000 0.577000
20.747999 -2.858000 1.263000
19.290001 -2.598000 0.240000
20.558001 -2.780000 0.906000
22.638000 -3.086000 1.760000
18.823000 -2.474000 -0.082000
20.407000 -2.689000 0.580000
22.687000 -3.011000 1.380000
19.266001 -2.498000 0.239000
20.604000 -2.684000 0.907000
22.674000 -2.976000 1.761000
18.819000 -2.380000 -0.082000
20.466999 -2.595000 0.582000
20.891001 -2.666000 1.270000
19.195000 -2.394000 0.238000
20.622999 -2.582000 0.907000
22.731001 -2.868000 1.764000
18.827999 -2.289000 -0.082000
20.452999 -2.490000 0.581000
20.862000 -2.558000 1.267000
19.211000 -2.300000 0.238000
20.598000 -2.476000 0.905000
22.761999 -2.757000 1.766000
18.871000 -2.200000 -0.083000
20.113001 -2.349000 0.571000
20.834000 -2.450000 1.265000
19.184999 -2.201000 0.238000
20.580000 -2.371000 0.904000
22.812000 -2.647000 1.768000
18.882999 -2.108000 -0.082000
20.035000 -2.240000 0.568000
20.811001 -2.342000 1.263000
19.181000 -2.106000 0.238000
20.608999 -2.271000 0.905000
22.879999 -2.539000 1.773000
18.877001 -2.014000 -0.082000
20.129999 -2.150000 0.570000
20.823999 -2.239000 1.263000
19.190001 -2.012000 0.237000
20.615000 -2.168000 0.905000
22.896999 -2.426000 1.773000
18.857000 -1.919000 -0.082000
20.204000 -2.057000 0.573000
20.783001 -2.131000 1.260000
19.201000 -1.917000 0.238000
20.625999 -2.067000 0.905000
22.941999 -2.315000 1.775000
18.851000 -1.824000 -0.082000
20.402000 -1.976000 0.578000
20.743000 -2.023000 1.256000
19.195000 -1.822000 0.238000
20.584000 -1.959000 0.902000
22.989000 -2.203000 1.778000
18.805000 -1.727000 -0.081000
20.499001 -1.884000 0.580000
20.674999 -1.912000 1.252000
19.191000 -1.727000 0.238000
20.568001 -1.855000 0.902000
23.035999 -2.092000 1.781000
18.833000 -1.637000 -0.082000
20.516001 -1.783000 0.581000
20.659000 -1.807000 1.251000
19.134001 -1.626000 0.237000
20.580000 -1.753000 0.902000
23.080999 -1.979000 1.784000
18.857000 -1.545000 -0.081000
20.493999 -1.679000 0.580000
20.681000 -1.705000 1.252000
19.184999 -1.535000 0.238000
20.577000 -1.651000 0.902000
20.955000 -1.691000 1.619000
18.868000 -1.454000 -0.081000
20.513000 -1.579000 0.581000
20.670000 -1.600000 1.251000
19.188999 -1.441000 0.238000
20.548000 -1.545000 0.900000
21.030001 -1.591000 1.625000
18.858999 -1.360000 -0.081000
20.518999 -1.477000 0.581000
20.656000 -1.496000 1.250000
19.205000 -1.347000 0.238000
20.520000 -1.441000 0.899000
21.042000 -1.486000 1.625000
18.892000 -1.268000 -0.080000
20.517000 -1.375000 0.581000
20.599001 -1.388000 1.246000
19.171000 -1.249000 0.238000
20.521000 -1.339000 0.899000
20.981001 -1.375000 1.621000
18.906000 -1.176000 -0.080000
20.509001 -1.273000 0.581000
20.584000 -1.283000 1.246000
19.208000 -1.157000 0.239000
20.589001 -1.241000 0.902000
20.966999 -1.269000 1.620000
18.884001 -1.082000 -0.079000
20.509001 -1.170000 0.582000
20.636999 -1.184000 1.249000
19.226999 -1.063000 0.240000
20.525999 -1.134000 0.900000
21.030001 -1.168000 1.625000
18.896000 -0.989000 -0.079000
20.503000 -1.069000 0.582000
20.625000 -1.080000 1.248000
19.264999 -0.969000 0.241000
20.539000 -1.033000 0.901000
21.007000 -1.060000 1.623000
18.893000 -0.896000 -0.078000
20.504000 -0.966000 0.582000
20.642000 -0.976000 1.250000
19.445000 -0.883000 0.244000
20.535999 -0.930000 0.901000
20.990000 -0.953000 1.622000
18.917000 -0.804000 -0.078000
20.500999 -0.864000 0.583000
20.632999 -0.873000 1.250000
19.423000 -0.785000 0.244000
20.548000 -0.827000 0.902000
20.948999 -0.846000 1.619000
18.931999 -0.710000 -0.077000
20.507000 -0.763000 0.584000
20.625999 -0.769000 1.250000
19.591000 -0.694000 0.247000
20.599001 -0.727000 0.905000
20.847000 -0.737000 1.612000
18.975000 -0.619000 -0.076000
20.500000 -0.661000 0.584000
20.641001 -0.666000 1.252000
19.916000 -0.608000 0.252000
20.596001 -0.624000 0.906000
20.843000 -0.631000 1.612000
18.993000 -0.526000 -0.075000
20.496000 -0.558000 0.585000
20.667999 -0.564000 1.254000
19.615000 -0.501000 0.249000
20.541000 -0.519000 0.904000
20.827999 -0.526000 1.612000
19.051001 -0.433000 -0.075000
20.486000 -0.456000 0.586000
20.691000 -0.460000 1.256000
19.531000 -0.402000 0.249000
20.566000 -0.418000 0.906000
20.802000 -0.420000 1.611000
19.113001 -0.340000 -0.074000
20.518000 -0.356000 0.588000
20.726999 -0.356000 1.259000
19.527000 -0.305000 0.250000
20.625999 -0.316000 0.910000
20.830000 -0.315000 1.614000
19.186001 -0.247000 -0.073000
20.566999 -0.254000 0.590000
20.721001 -0.253000 1.260000
19.530001 -0.208000 0.251000
20.672001 -0.213000 0.913000
20.801001 -0.210000 1.613000
19.200001 -0.152000 -0.072000
20.594000 -0.151000 0.592000
20.718000 -0.149000 1.261000
19.528999 -0.111000 0.252000
20.664000 -0.110000 0.914000
20.750999 -0.105000 1.610000
19.207001 -0.056000 -0.071000
20.584000 -0.049000 0.593000
20.761999 -0.044000 1.265000
19.546000 -0.015000 0.253000
20.694000 -0.006000 0.917000
20.822001 0.000000 1.617000
19.181999 0.037000 -0.070000
20.579000 0.053000 0.594000
20.792000 0.059000 1.268000
19.507000 0.081000 0.254000
20.736000 0.097000 0.920000
20.815001 0.104000 1.618000
19.229000 0.133000 -0.069000
20.591000 0.156000 0.596000
20.799000 0.163000 1.270000
19.547001 0.179000 0.256000
20.745001 0.200000 0.922000
20.780001 0.209000 1.617000
19.231001 0.228000 -0.067000
20.622000 0.259000 0.599000
20.823000 0.268000 1.273000
19.531000 0.276000 0.257000
20.767000 0.304000 0.925000
20.905001 0.317000 1.628000
19.243999 0.323000 -0.066000
20.622999 0.362000 0.600000
20.863001 0.374000 1.278000
19.547001 0.373000 0.259000
20.795000 0.410000 0.928000
20.896000 0.422000 1.629000
19.271000 0.420000 -0.064000
20.610001 0.465000 0.602000
20.896999 0.480000 1.282000
19.569000 0.471000 0.261000
20.819000 0.515000 0.931000
20.868000 0.528000 1.629000
19.299000 0.516000 -0.063000
20.622999 0.568000 0.604000
20.933001 0.587000 1.286000
19.556000 0.568000 0.263000
20.833000 0.619000 0.933000
20.847000 0.633000 1.630000
19.297001 0.612000 -0.061000
20.598000 0.671000 0.605000
20.920000 0.692000 1.287000
19.565001 0.666000 0.265000
20.832001 0.724000 0.935000
20.879000 0.740000 1.635000
19.298000 0.708000 -0.059000
20.580999 0.774000 0.607000
20.924999 0.798000 1.290000
19.552000 0.763000 0.266000
20.820000 0.829000 0.937000
21.886999 0.886000 1.716000
19.344000 0.806000 -0.058000
