# This PCD file was generated using the MATLAB® pcwrite function
# from Computer Vision Toolbox®.
# .PCD v.7 - Point Cloud Data file format
VERSION .7
FIELDS x y z
SIZE 4 4 4
TYPE F F F
COUNT 1 1 1
WIDTH 1596
HEIGHT 1
VIEWPOINT 0 0 0 1 0 0 0
POINTS 1596
DATA ascii
15.815000 9.530000 -2.192000
11.029000 6.981000 -2.669000
12.621000 7.795000 -2.516000
14.705000 8.883000 -2.340000
11.800000 7.327000 -2.595000
13.574000 8.241000 -2.441000
15.769000 9.376000 -2.191000
11.033000 6.890000 -2.669000
12.623000 7.692000 -2.519000
14.697000 8.761000 -2.343000
11.795000 7.226000 -2.595000
13.561000 8.123000 -2.442000
15.630000 9.168000 -2.178000
11.029000 6.793000 -2.669000
12.607000 7.579000 -2.517000
14.653000 8.616000 -2.340000
11.793000 7.126000 -2.595000
13.548000 8.004000 -2.442000
15.566000 9.007000 -2.174000
11.018000 6.694000 -2.667000
12.604000 7.472000 -2.519000
14.666000 8.505000 -2.346000
11.806000 7.036000 -2.599000
13.535000 7.887000 -2.442000
15.898000 9.071000 -2.224000
11.038000 6.612000 -2.670000
12.617000 7.377000 -2.523000
14.636000 8.369000 -2.344000
11.803000 6.935000 -2.598000
13.534000 7.776000 -2.445000
15.928000 8.960000 -2.234000
11.042000 6.520000 -2.670000
12.612000 7.269000 -2.522000
14.623000 8.244000 -2.344000
11.790000 6.829000 -2.594000
13.528000 7.662000 -2.444000
15.908000 8.822000 -2.234000
11.044000 6.429000 -2.670000
12.612000 7.165000 -2.522000
14.614000 8.120000 -2.345000
11.781000 6.725000 -2.592000
13.538000 7.557000 -2.446000
15.901000 8.691000 -2.235000
11.042000 6.334000 -2.667000
12.619000 7.065000 -2.523000
14.611000 8.001000 -2.346000
11.797000 6.636000 -2.594000
13.529000 7.441000 -2.446000
15.884000 8.554000 -2.236000
11.053000 6.246000 -2.668000
12.631000 6.967000 -2.524000
14.604000 7.879000 -2.345000
11.795000 6.536000 -2.591000
13.541000 7.338000 -2.448000
15.893000 8.433000 -2.239000
11.057000 6.155000 -2.666000
12.637000 6.866000 -2.525000
14.581000 7.749000 -2.343000
11.802000 6.442000 -2.592000
13.536000 7.225000 -2.446000
15.869000 8.293000 -2.236000
11.081000 6.075000 -2.668000
12.640000 6.765000 -2.524000
14.576000 7.630000 -2.342000
11.804000 6.345000 -2.590000
13.555000 7.125000 -2.449000
15.879000 8.172000 -2.239000
11.092000 5.987000 -2.668000
12.634000 6.657000 -2.521000
14.593000 7.521000 -2.344000
11.815000 6.253000 -2.589000
13.563000 7.020000 -2.449000
15.877000 8.045000 -2.239000
11.105000 5.901000 -2.668000
12.638000 6.555000 -2.520000
14.589000 7.402000 -2.343000
11.819000 6.157000 -2.587000
13.551000 6.903000 -2.445000
15.883000 7.923000 -2.240000
11.118000 5.814000 -2.666000
12.661000 6.464000 -2.522000
14.597000 7.290000 -2.344000
11.834000 6.067000 -2.587000
13.579000 6.807000 -2.448000
15.871000 7.791000 -2.238000
11.125000 5.724000 -2.665000
12.662000 6.361000 -2.519000
14.590000 7.170000 -2.340000
11.844000 5.975000 -2.586000
13.580000 6.699000 -2.446000
15.871000 7.665000 -2.237000
11.140000 5.639000 -2.664000
12.665000 6.259000 -2.517000
14.622000 7.069000 -2.345000
11.865000 5.887000 -2.587000
13.588000 6.594000 -2.444000
15.875000 7.542000 -2.236000
11.155000 5.554000 -2.663000
12.689000 6.169000 -2.518000
14.649000 6.966000 -2.347000
11.875000 5.794000 -2.585000
13.591000 6.486000 -2.443000
15.889000 7.424000 -2.238000
11.180000 5.473000 -2.664000
12.704000 6.073000 -2.517000
14.637000 6.844000 -2.342000
11.893000 5.706000 -2.584000
13.613000 6.388000 -2.444000
15.877000 7.295000 -2.234000
11.174000 5.378000 -2.657000
12.714000 5.975000 -2.515000
14.654000 6.736000 -2.343000
11.905000 5.614000 -2.582000
13.657000 6.299000 -2.447000
15.880000 7.171000 -2.232000
11.196000 5.296000 -2.657000
12.731000 5.881000 -2.515000
14.655000 6.622000 -2.340000
11.919000 5.524000 -2.581000
13.663000 6.193000 -2.445000
15.905000 7.059000 -2.234000
11.215000 5.211000 -2.656000
12.766000 5.793000 -2.517000
14.670000 6.513000 -2.338000
11.945000 5.440000 -2.581000
13.689000 6.097000 -2.446000
15.869000 6.920000 -2.226000
11.226000 5.125000 -2.653000
12.769000 5.693000 -2.513000
14.695000 6.408000 -2.340000
11.959000 5.349000 -2.579000
13.690000 5.988000 -2.442000
15.875000 6.800000 -2.223000
11.245000 5.042000 -2.652000
12.793000 5.602000 -2.513000
14.716000 6.303000 -2.339000
11.974000 5.259000 -2.577000
13.694000 5.883000 -2.438000
15.856000 6.669000 -2.218000
11.269000 4.960000 -2.652000
12.807000 5.505000 -2.511000
14.749000 6.203000 -2.340000
11.982000 5.167000 -2.573000
13.714000 5.784000 -2.438000
15.894000 6.563000 -2.220000
11.275000 4.871000 -2.647000
12.814000 5.407000 -2.507000
14.784000 6.102000 -2.342000
12.007000 5.081000 -2.573000
13.717000 5.677000 -2.433000
15.866000 6.431000 -2.213000
11.291000 4.787000 -2.645000
12.831000 5.313000 -2.505000
14.791000 5.992000 -2.339000
12.029000 4.994000 -2.572000
13.779000 5.596000 -2.440000
15.935000 6.336000 -2.219000
11.310000 4.703000 -2.643000
12.851000 5.220000 -2.504000
14.819000 5.889000 -2.339000
12.038000 4.903000 -2.568000
13.771000 5.486000 -2.433000
15.952000 6.221000 -2.217000
11.327000 4.619000 -2.640000
12.869000 5.126000 -2.502000
14.826000 5.777000 -2.336000
12.057000 4.814000 -2.566000
13.800000 5.389000 -2.433000
15.953000 6.101000 -2.213000
11.352000 4.539000 -2.640000
12.882000 5.031000 -2.499000
14.843000 5.670000 -2.334000
12.080000 4.728000 -2.565000
13.788000 5.279000 -2.426000
16.014000 6.002000 -2.217000
11.374000 4.456000 -2.638000
12.903000 4.938000 -2.497000
14.835000 5.555000 -2.328000
12.105000 4.644000 -2.565000
13.808000 5.181000 -2.424000
16.059000 5.899000 -2.219000
11.396000 4.375000 -2.637000
12.919000 4.845000 -2.495000
14.861000 5.451000 -2.327000
12.114000 4.551000 -2.560000
13.824000 5.080000 -2.422000
16.040001 5.772000 -2.212000
11.418000 4.293000 -2.636000
12.932000 4.750000 -2.491000
14.888000 5.348000 -2.326000
12.136000 4.465000 -2.559000
13.847000 4.983000 -2.420000
16.028999 5.647000 -2.206000
11.451000 4.214000 -2.636000
12.945000 4.654000 -2.488000
14.905000 5.243000 -2.323000
12.164000 4.381000 -2.558000
13.865000 4.884000 -2.418000
16.070999 5.542000 -2.207000
11.458000 4.127000 -2.631000
12.971000 4.565000 -2.487000
14.917000 5.133000 -2.320000
12.178000 4.291000 -2.555000
13.895000 4.789000 -2.417000
16.073999 5.424000 -2.203000
11.482000 4.047000 -2.630000
12.997000 4.474000 -2.486000
14.945000 5.031000 -2.319000
12.204000 4.207000 -2.554000
13.907000 4.688000 -2.414000
16.073000 5.303000 -2.198000
11.508000 3.965000 -2.629000
13.012000 4.380000 -2.483000
14.967000 4.928000 -2.317000
12.218000 4.118000 -2.551000
13.927000 4.591000 -2.412000
16.125000 5.202000 -2.200000
11.514000 3.878000 -2.624000
13.044000 4.292000 -2.483000
14.999000 4.825000 -2.317000
12.250000 4.034000 -2.551000
13.941000 4.490000 -2.409000
16.174000 5.099000 -2.201000
11.568000 3.807000 -2.630000
13.061000 4.199000 -2.480000
15.025000 4.723000 -2.315000
12.269000 3.947000 -2.549000
13.965000 4.393000 -2.407000
16.153999 4.973000 -2.194000
11.586000 3.723000 -2.627000
13.087000 4.108000 -2.480000
15.049000 4.620000 -2.314000
12.300000 3.864000 -2.549000
13.998000 4.300000 -2.407000
16.115000 4.843000 -2.183000
11.609000 3.642000 -2.626000
13.108000 4.016000 -2.477000
15.047000 4.507000 -2.308000
12.323000 3.776000 -2.547000
13.995000 4.195000 -2.401000
16.115999 4.727000 -2.178000
11.635000 3.561000 -2.625000
13.127000 3.924000 -2.475000
15.089000 4.409000 -2.309000
12.341000 3.689000 -2.545000
14.036000 4.102000 -2.402000
16.156000 4.620000 -2.179000
11.647000 3.475000 -2.621000
13.153000 3.833000 -2.474000
15.110000 4.304000 -2.307000
12.366000 3.604000 -2.544000
14.051000 4.004000 -2.398000
16.115999 4.492000 -2.168000
11.659000 3.390000 -2.617000
13.167000 3.739000 -2.470000
15.136000 4.201000 -2.305000
12.402000 3.520000 -2.545000
14.072000 3.906000 -2.397000
16.113001 4.374000 -2.163000
11.692000 3.312000 -2.619000
13.193000 3.649000 -2.469000
15.150000 4.095000 -2.302000
12.418000 3.433000 -2.542000
14.110000 3.813000 -2.397000
16.099001 4.254000 -2.156000
11.706000 3.226000 -2.615000
13.217000 3.558000 -2.468000
15.160000 3.987000 -2.299000
12.434000 3.345000 -2.539000
14.120000 3.712000 -2.393000
16.046000 4.126000 -2.144000
11.726000 3.144000 -2.613000
13.239000 3.466000 -2.466000
15.192000 3.886000 -2.298000
12.460000 3.258000 -2.539000
14.136000 3.613000 -2.391000
16.021000 4.004000 -2.136000
11.752000 3.063000 -2.613000
13.267000 3.376000 -2.466000
15.212000 3.782000 -2.296000
12.477000 3.171000 -2.536000
14.163000 3.517000 -2.390000
15.987000 3.881000 -2.126000
11.759000 2.977000 -2.609000
13.284000 3.283000 -2.464000
15.236000 3.678000 -2.294000
12.495000 3.084000 -2.534000
14.186000 3.420000 -2.388000
15.979000 3.766000 -2.120000
11.791000 2.897000 -2.610000
13.310000 3.192000 -2.463000
15.265000 3.575000 -2.293000
12.527000 2.999000 -2.535000
14.207000 3.323000 -2.387000
16.193001 3.701000 -2.144000
11.812000 2.815000 -2.608000
13.332000 3.101000 -2.461000
15.266000 3.467000 -2.288000
12.549000 2.912000 -2.534000
14.232000 3.225000 -2.385000
16.243999 3.597000 -2.146000
11.835000 2.732000 -2.608000
13.348000 3.007000 -2.459000
15.313000 3.368000 -2.291000
12.563000 2.824000 -2.531000
14.256000 3.129000 -2.384000
16.212000 3.476000 -2.137000
11.835000 2.645000 -2.602000
13.369000 2.915000 -2.458000
15.313000 3.259000 -2.286000
12.585000 2.736000 -2.531000
14.259000 3.027000 -2.380000
16.209999 3.361000 -2.133000
11.861000 2.563000 -2.602000
13.382000 2.822000 -2.455000
15.342000 3.156000 -2.285000
12.605000 2.649000 -2.529000
14.289000 2.931000 -2.380000
16.347000 3.274000 -2.146000
11.884000 2.481000 -2.602000
13.414000 2.732000 -2.456000
15.349000 3.049000 -2.282000
12.623000 2.561000 -2.528000
14.305000 2.833000 -2.378000
16.452999 3.180000 -2.156000
11.894000 2.396000 -2.599000
13.432000 2.639000 -2.454000
15.337000 2.938000 -2.275000
12.638000 2.472000 -2.526000
14.347000 2.739000 -2.381000
16.507999 3.075000 -2.159000
11.900000 2.311000 -2.595000
13.452000 2.547000 -2.453000
15.373000 2.837000 -2.276000
12.659000 2.385000 -2.525000
14.349000 2.637000 -2.376000
16.503000 2.959000 -2.154000
11.921000 2.227000 -2.595000
13.480000 2.455000 -2.454000
15.423000 2.737000 -2.280000
12.675000 2.297000 -2.524000
14.376000 2.541000 -2.376000
16.407000 2.828000 -2.137000
11.934000 2.143000 -2.593000
13.483000 2.359000 -2.450000
15.406000 2.627000 -2.273000
12.688000 2.208000 -2.522000
14.399000 2.443000 -2.376000
16.389000 2.710000 -2.131000
11.967000 2.062000 -2.596000
13.493000 2.265000 -2.447000
15.405000 2.518000 -2.269000
12.702000 2.119000 -2.520000
14.397000 2.340000 -2.372000
16.406000 2.599000 -2.130000
11.973000 1.977000 -2.593000
13.513000 2.172000 -2.447000
15.408000 2.411000 -2.266000
12.690000 2.027000 -2.514000
14.440000 2.246000 -2.375000
16.375999 2.481000 -2.122000
11.994000 1.893000 -2.593000
13.540000 2.081000 -2.448000
15.462000 2.312000 -2.270000
12.727000 1.941000 -2.517000
14.448000 2.146000 -2.373000
16.362000 2.365000 -2.117000
12.001000 1.808000 -2.590000
13.513000 1.981000 -2.439000
15.511000 2.211000 -2.273000
12.750000 1.854000 -2.518000
14.444000 2.044000 -2.368000
16.341999 2.250000 -2.112000
11.997000 1.721000 -2.586000
13.551000 1.891000 -2.443000
15.466000 2.097000 -2.264000
12.776000 1.767000 -2.519000
14.452000 1.944000 -2.366000
16.340000 2.137000 -2.108000
12.021000 1.638000 -2.587000
13.571000 1.798000 -2.443000
15.477000 1.991000 -2.262000
12.754000 1.673000 -2.512000
14.518000 1.851000 -2.374000
16.348000 2.025000 -2.106000
12.029000 1.552000 -2.586000
13.573000 1.703000 -2.440000
15.494000 1.886000 -2.262000
12.761000 1.583000 -2.510000
14.538000 1.752000 -2.374000
16.344000 1.913000 -2.103000
12.037000 1.468000 -2.584000
13.585000 1.608000 -2.439000
15.580000 1.788000 -2.272000
12.804000 1.497000 -2.515000
14.503000 1.647000 -2.366000
16.332001 1.799000 -2.099000
12.077000 1.386000 -2.590000
13.564000 1.511000 -2.433000
15.533000 1.676000 -2.262000
12.822000 1.409000 -2.516000
14.521000 1.548000 -2.366000
16.375999 1.691000 -2.102000
12.097000 1.302000 -2.591000
13.583000 1.418000 -2.433000
15.554000 1.571000 -2.263000
12.835000 1.320000 -2.516000
14.531000 1.448000 -2.365000
16.379000 1.580000 -2.101000
12.058000 1.212000 -2.580000
13.616000 1.326000 -2.437000
15.595000 1.467000 -2.267000
12.844000 1.230000 -2.515000
14.584000 1.352000 -2.372000
16.444000 1.473000 -2.107000
12.101000 1.130000 -2.587000
13.622000 1.231000 -2.436000
15.629000 1.363000 -2.270000
12.826000 1.138000 -2.510000
14.558000 1.248000 -2.365000
16.416000 1.358000 -2.102000
12.122000 1.046000 -2.589000
13.644000 1.138000 -2.438000
15.698000 1.261000 -2.278000
12.851000 1.050000 -2.512000
14.563000 1.148000 -2.365000
16.400999 1.246000 -2.098000
12.121000 0.960000 -2.587000
13.680000 1.045000 -2.442000
15.681000 1.151000 -2.274000
12.860000 0.960000 -2.513000
14.600000 1.050000 -2.369000
16.378000 1.132000 -2.094000
12.154000 0.876000 -2.592000
13.691000 0.951000 -2.443000
15.640000 1.041000 -2.266000
12.884000 0.871000 -2.516000
14.661000 0.952000 -2.377000
16.386999 1.020000 -2.094000
12.153000 0.789000 -2.591000
13.696000 0.856000 -2.442000
15.685000 0.936000 -2.272000
12.915000 0.782000 -2.520000
14.664000 0.852000 -2.377000
16.414000 0.911000 -2.097000
12.164000 0.704000 -2.592000
13.693000 0.760000 -2.441000
15.713000 0.830000 -2.275000
12.929000 0.692000 -2.522000
14.687000 0.751000 -2.379000
16.434999 0.800000 -2.099000
12.160000 0.618000 -2.590000
13.739000 0.667000 -2.448000
15.753000 0.724000 -2.280000
12.927000 0.602000 -2.521000
14.626000 0.647000 -2.369000
16.406000 0.686000 -2.095000
12.157000 0.531000 -2.588000
13.748000 0.572000 -2.449000
15.743000 0.616000 -2.278000
12.901000 0.510000 -2.515000
14.688000 0.548000 -2.379000
16.424000 0.575000 -2.096000
12.173000 0.446000 -2.591000
13.740000 0.475000 -2.447000
15.741000 0.507000 -2.278000
12.934000 0.420000 -2.521000
14.719000 0.448000 -2.383000
16.445000 0.464000 -2.099000
12.181000 0.361000 -2.593000
13.742000 0.380000 -2.447000
15.764000 0.401000 -2.281000
12.945000 0.330000 -2.523000
14.705000 0.345000 -2.381000
16.430000 0.351000 -2.098000
12.157000 0.273000 -2.587000
13.773000 0.285000 -2.453000
15.972000 0.296000 -2.311000
12.946000 0.240000 -2.523000
14.713000 0.244000 -2.383000
16.438000 0.240000 -2.099000
12.164000 0.188000 -2.589000
13.773000 0.189000 -2.453000
15.757000 0.184000 -2.281000
12.933000 0.148000 -2.521000
14.706000 0.142000 -2.382000
16.448000 0.128000 -2.101000
12.192000 0.102000 -2.595000
13.699000 0.093000 -2.441000
15.749000 0.076000 -2.280000
12.937000 0.058000 -2.523000
14.679000 0.040000 -2.378000
16.482000 0.015000 -2.106000
12.178000 0.015000 -2.593000
13.726000 -0.002000 -2.446000
15.814000 -0.031000 -2.291000
12.919000 -0.032000 -2.520000
14.692000 -0.060000 -2.381000
16.490000 -0.095000 -2.108000
12.176000 -0.070000 -2.594000
13.774000 -0.098000 -2.456000
15.937000 -0.142000 -2.310000
12.933000 -0.124000 -2.524000
14.685000 -0.161000 -2.382000
16.424000 -0.207000 -2.101000
12.177000 -0.156000 -2.595000
13.721000 -0.193000 -2.448000
15.655000 -0.246000 -2.270000
12.922000 -0.214000 -2.523000
14.662000 -0.263000 -2.379000
16.333000 -0.318000 -2.091000
12.170000 -0.243000 -2.595000
13.708000 -0.289000 -2.447000
15.626000 -0.353000 -2.268000
12.905000 -0.304000 -2.521000
14.647000 -0.364000 -2.379000
16.171000 -0.425000 -2.072000
12.158000 -0.328000 -2.594000
13.717000 -0.385000 -2.450000
15.555000 -0.459000 -2.259000
12.889000 -0.395000 -2.520000
14.618000 -0.465000 -2.376000
16.127001 -0.534000 -2.068000
12.148000 -0.414000 -2.594000
13.735000 -0.481000 -2.456000
15.574000 -0.566000 -2.264000
12.881000 -0.485000 -2.521000
14.667000 -0.568000 -2.386000
16.323000 -0.653000 -2.096000
12.120000 -0.500000 -2.590000
13.721000 -0.577000 -2.455000
15.566000 -0.674000 -2.265000
12.883000 -0.576000 -2.523000
14.653000 -0.669000 -2.386000
16.368000 -0.766000 -2.104000
12.113000 -0.586000 -2.591000
13.700000 -0.672000 -2.454000
15.645000 -0.785000 -2.280000
12.861000 -0.667000 -2.522000
14.563000 -0.767000 -2.374000
16.375999 -0.878000 -2.108000
12.112000 -0.672000 -2.594000
13.691000 -0.767000 -2.455000
15.830000 -0.903000 -2.310000
12.846000 -0.756000 -2.522000
14.637000 -0.873000 -2.389000
16.325001 -0.989000 -2.104000
12.105000 -0.759000 -2.595000
13.676000 -0.862000 -2.456000
15.795000 -1.010000 -2.308000
12.854000 -0.847000 -2.526000
14.623000 -0.973000 -2.390000
16.292000 -1.098000 -2.103000
12.101000 -0.845000 -2.597000
13.649000 -0.957000 -2.454000
15.669000 -1.112000 -2.292000
12.833000 -0.938000 -2.525000
14.612000 -1.075000 -2.392000
16.332001 -1.213000 -2.112000
12.109000 -0.931000 -2.603000
13.634000 -1.051000 -2.455000
15.656000 -1.219000 -2.294000
12.828000 -1.028000 -2.528000
14.605000 -1.177000 -2.394000
16.288000 -1.323000 -2.110000
12.084000 -1.017000 -2.601000
13.659000 -1.150000 -2.463000
15.621000 -1.324000 -2.293000
12.747000 -1.112000 -2.516000
14.585000 -1.277000 -2.395000
16.302000 -1.436000 -2.116000
12.051000 -1.100000 -2.598000
13.607000 -1.242000 -2.458000
15.805000 -1.451000 -2.324000
12.785000 -1.207000 -2.528000
14.552000 -1.377000 -2.394000
16.261999 -1.545000 -2.115000
12.045000 -1.186000 -2.601000
13.605000 -1.338000 -2.461000
15.695000 -1.550000 -2.312000
12.766000 -1.296000 -2.528000
14.511000 -1.475000 -2.391000
16.268000 -1.660000 -2.120000
12.036000 -1.273000 -2.603000
13.565000 -1.430000 -2.459000
15.675000 -1.657000 -2.314000
12.743000 -1.385000 -2.528000
14.531000 -1.579000 -2.399000
16.278999 -1.773000 -2.126000
12.027000 -1.359000 -2.606000
13.591000 -1.530000 -2.468000
15.611000 -1.761000 -2.310000
12.725000 -1.475000 -2.529000
14.531000 -1.682000 -2.404000
16.268000 -1.885000 -2.129000
12.006000 -1.443000 -2.607000
13.552000 -1.622000 -2.466000
15.606000 -1.870000 -2.314000
12.685000 -1.562000 -2.526000
14.511000 -1.783000 -2.406000
16.256001 -1.998000 -2.133000
11.999000 -1.531000 -2.610000
13.556000 -1.720000 -2.472000
15.520000 -1.968000 -2.306000
12.713000 -1.656000 -2.537000
14.346000 -1.864000 -2.384000
16.259001 -2.112000 -2.138000
11.971000 -1.614000 -2.610000
13.536000 -1.814000 -2.474000
15.482000 -2.074000 -2.306000
12.704000 -1.748000 -2.541000
14.447000 -1.981000 -2.406000
16.275000 -2.228000 -2.146000
11.943000 -1.697000 -2.609000
13.497000 -1.906000 -2.472000
15.501000 -2.186000 -2.315000
12.700000 -1.839000 -2.546000
14.411000 -2.079000 -2.406000
16.278000 -2.344000 -2.152000
11.945000 -1.786000 -2.616000
13.455000 -1.997000 -2.471000
15.468000 -2.290000 -2.316000
12.658000 -1.925000 -2.544000
14.358000 -2.174000 -2.403000
16.242001 -2.453000 -2.153000
11.928000 -1.871000 -2.618000
13.422000 -2.089000 -2.471000
15.426000 -2.395000 -2.316000
12.647000 -2.016000 -2.548000
14.399000 -2.284000 -2.416000
16.223000 -2.564000 -2.157000
11.913000 -1.956000 -2.621000
13.391000 -2.181000 -2.471000
15.366000 -2.495000 -2.313000
12.626000 -2.105000 -2.550000
14.293000 -2.370000 -2.405000
16.157000 -2.670000 -2.155000
11.878000 -2.039000 -2.620000
13.429000 -2.286000 -2.485000
15.371000 -2.605000 -2.320000
12.611000 -2.195000 -2.553000
14.287000 -2.472000 -2.411000
16.174000 -2.787000 -2.163000
11.848000 -2.122000 -2.620000
13.375000 -2.374000 -2.482000
15.296000 -2.704000 -2.316000
12.560000 -2.280000 -2.550000
14.282000 -2.575000 -2.417000
16.164000 -2.900000 -2.169000
11.845000 -2.209000 -2.627000
13.359000 -2.469000 -2.486000
15.254000 -2.806000 -2.317000
12.560000 -2.372000 -2.557000
14.202000 -2.664000 -2.410000
16.187000 -3.022000 -2.179000
11.813000 -2.293000 -2.627000
13.316000 -2.559000 -2.485000
15.219000 -2.909000 -2.318000
12.534000 -2.460000 -2.559000
14.189000 -2.765000 -2.416000
16.141001 -3.129000 -2.180000
11.793000 -2.377000 -2.630000
13.270000 -2.648000 -2.484000
15.152000 -3.008000 -2.316000
12.492000 -2.545000 -2.558000
14.104000 -2.852000 -2.408000
16.120001 -3.241000 -2.185000
11.777000 -2.462000 -2.634000
13.258000 -2.744000 -2.489000
15.113000 -3.109000 -2.317000
12.463000 -2.633000 -2.560000
14.089000 -2.953000 -2.414000
16.129999 -3.360000 -2.193000
11.744000 -2.545000 -2.635000
13.160000 -2.822000 -2.478000
15.107000 -3.218000 -2.324000
12.422000 -2.717000 -2.560000
14.057000 -3.050000 -2.416000
16.134001 -3.479000 -2.202000
11.714000 -2.628000 -2.636000
13.158000 -2.920000 -2.486000
15.032000 -3.314000 -2.320000
12.381000 -2.802000 -2.559000
14.004000 -3.143000 -2.415000
16.132999 -3.596000 -2.210000
11.681000 -2.709000 -2.637000
13.141000 -3.014000 -2.491000
15.033000 -3.425000 -2.329000
12.354000 -2.890000 -2.562000
13.944000 -3.234000 -2.413000
16.099001 -3.707000 -2.213000
11.650000 -2.792000 -2.639000
13.085000 -3.100000 -2.488000
14.948000 -3.515000 -2.324000
12.314000 -2.974000 -2.562000
13.943000 -3.337000 -2.421000
16.059000 -3.816000 -2.216000
11.605000 -2.871000 -2.638000
13.060000 -3.194000 -2.492000
14.902000 -3.617000 -2.325000
12.252000 -3.053000 -2.558000
13.914000 -3.435000 -2.424000
16.021999 -3.925000 -2.219000
11.563000 -2.950000 -2.637000
13.059000 -3.292000 -2.501000
14.881000 -3.722000 -2.330000
12.206000 -3.136000 -2.557000
13.874000 -3.531000 -2.426000
16.018999 -4.045000 -2.227000
11.534000 -3.033000 -2.639000
13.014000 -3.381000 -2.501000
14.848000 -3.825000 -2.334000
12.186000 -3.225000 -2.562000
13.833000 -3.625000 -2.428000
16.021999 -4.164000 -2.236000
11.495000 -3.113000 -2.640000
12.981000 -3.472000 -2.504000
14.807000 -3.928000 -2.336000
12.196000 -3.323000 -2.573000
13.812000 -3.725000 -2.433000
15.955000 -4.266000 -2.236000
11.487000 -3.201000 -2.648000
12.946000 -3.562000 -2.506000
14.788000 -4.034000 -2.342000
12.152000 -3.406000 -2.574000
13.763000 -3.818000 -2.434000
15.905000 -4.373000 -2.238000
11.451000 -3.282000 -2.649000
12.877000 -3.643000 -2.502000
14.741000 -4.134000 -2.344000
12.127000 -3.493000 -2.578000
13.745000 -3.918000 -2.440000
15.885000 -4.488000 -2.244000
11.416000 -3.364000 -2.651000
12.868000 -3.742000 -2.510000
14.715000 -4.239000 -2.349000
12.105000 -3.583000 -2.583000
13.678000 -4.005000 -2.437000
15.837000 -4.596000 -2.247000
11.362000 -3.438000 -2.648000
12.838000 -3.833000 -2.514000
14.666000 -4.338000 -2.351000
12.069000 -3.669000 -2.585000
13.667000 -4.109000 -2.445000
15.788000 -4.702000 -2.249000
11.347000 -3.526000 -2.655000
12.796000 -3.922000 -2.515000
14.630000 -4.441000 -2.354000
12.034000 -3.754000 -2.588000
13.622000 -4.202000 -2.447000
15.750000 -4.812000 -2.253000
11.294000 -3.601000 -2.653000
12.772000 -4.016000 -2.521000
14.602000 -4.546000 -2.359000
12.004000 -3.841000 -2.591000
13.593000 -4.300000 -2.451000
15.718000 -4.925000 -2.258000
11.291000 -3.692000 -2.663000
12.724000 -4.102000 -2.521000
14.545000 -4.642000 -2.360000
11.972000 -3.928000 -2.595000
13.561000 -4.398000 -2.456000
15.663000 -5.029000 -2.260000
11.250000 -3.771000 -2.663000
12.697000 -4.196000 -2.526000
14.523000 -4.750000 -2.366000
11.921000 -4.008000 -2.594000
13.524000 -4.493000 -2.459000
15.640000 -5.144000 -2.267000
11.210000 -3.850000 -2.665000
12.675000 -4.291000 -2.532000
14.494000 -4.855000 -2.371000
11.887000 -4.094000 -2.597000
13.489000 -4.590000 -2.463000
15.599000 -5.254000 -2.270000
11.185000 -3.934000 -2.670000
12.644000 -4.383000 -2.536000
14.440000 -4.952000 -2.373000
11.864000 -4.184000 -2.603000
13.461000 -4.689000 -2.468000
15.540000 -5.357000 -2.271000
11.154000 -4.017000 -2.673000
12.602000 -4.471000 -2.538000
14.406000 -5.057000 -2.377000
11.822000 -4.267000 -2.605000
13.415000 -4.782000 -2.470000
15.492000 -5.464000 -2.275000
11.112000 -4.096000 -2.674000
12.564000 -4.561000 -2.541000
14.366000 -5.158000 -2.381000
11.788000 -4.354000 -2.608000
13.394000 -4.884000 -2.476000
15.453000 -5.574000 -2.279000
11.067000 -4.173000 -2.675000
12.529000 -4.653000 -2.545000
14.337000 -5.264000 -2.386000
11.740000 -4.435000 -2.609000
13.351000 -4.978000 -2.479000
15.419000 -5.686000 -2.284000
11.041000 -4.258000 -2.680000
12.486000 -4.741000 -2.546000
14.304000 -5.370000 -2.391000
11.711000 -4.523000 -2.613000
13.315000 -5.075000 -2.483000
15.362000 -5.790000 -2.286000
11.001000 -4.338000 -2.682000
12.447000 -4.830000 -2.549000
14.243000 -5.463000 -2.391000
11.678000 -4.610000 -2.616000
13.274000 -5.171000 -2.486000
15.315000 -5.898000 -2.288000
10.968000 -4.420000 -2.685000
12.403000 -4.918000 -2.551000
14.214000 -5.570000 -2.397000
11.618000 -4.686000 -2.615000
13.241000 -5.268000 -2.490000
15.291000 -6.014000 -2.295000
10.937000 -4.503000 -2.689000
12.368000 -5.010000 -2.555000
14.180000 -5.676000 -2.401000
11.597000 -4.777000 -2.621000
13.213000 -5.369000 -2.496000
15.229000 -6.116000 -2.296000
10.908000 -4.588000 -2.694000
12.320000 -5.096000 -2.556000
14.158000 -5.785000 -2.408000
11.570000 -4.868000 -2.626000
13.167000 -5.463000 -2.498000
15.204000 -6.233000 -2.302000
10.851000 -4.660000 -2.692000
12.285000 -5.188000 -2.560000
14.131000 -5.894000 -2.414000
11.517000 -4.947000 -2.626000
13.153000 -5.570000 -2.506000
15.161000 -6.343000 -2.305000
10.826000 -4.746000 -2.697000
12.260000 -5.285000 -2.566000
14.090000 -5.998000 -2.417000
11.485000 -5.034000 -2.630000
13.091000 -5.657000 -2.505000
15.109000 -6.449000 -2.308000
10.793000 -4.829000 -2.701000
12.220000 -5.374000 -2.568000
14.032000 -6.093000 -2.417000
11.451000 -5.122000 -2.633000
13.048000 -5.752000 -2.507000
15.075000 -6.563000 -2.312000
10.759000 -4.911000 -2.704000
12.185000 -5.467000 -2.572000
14.016000 -6.207000 -2.426000
11.414000 -5.208000 -2.637000
13.037000 -5.862000 -2.516000
15.042000 -6.678000 -2.317000
10.725000 -4.994000 -2.707000
12.162000 -5.565000 -2.578000
13.955000 -6.302000 -2.425000
11.374000 -5.293000 -2.639000
12.999000 -5.960000 -2.520000
14.991000 -6.785000 -2.320000
10.688000 -5.076000 -2.710000
12.112000 -5.651000 -2.579000
13.912000 -6.404000 -2.428000
11.352000 -5.387000 -2.645000
12.940000 -6.048000 -2.519000
14.951000 -6.898000 -2.323000
10.646000 -5.156000 -2.711000
12.065000 -5.738000 -2.580000
13.876000 -6.511000 -2.432000
11.319000 -5.475000 -2.649000
12.895000 -6.143000 -2.521000
14.912000 -7.010000 -2.327000
10.612000 -5.239000 -2.715000
12.037000 -5.835000 -2.585000
13.834000 -6.615000 -2.435000
11.286000 -5.565000 -2.653000
12.868000 -6.246000 -2.527000
14.878000 -7.126000 -2.332000
10.573000 -5.320000 -2.717000
11.997000 -5.926000 -2.587000
13.796000 -6.720000 -2.438000
11.258000 -5.656000 -2.658000
12.827000 -6.344000 -2.529000
14.835000 -7.238000 -2.334000
10.541000 -5.406000 -2.721000
11.964000 -6.021000 -2.592000
13.752000 -6.824000 -2.441000
11.224000 -5.745000 -2.661000
12.794000 -6.445000 -2.533000
14.799000 -7.353000 -2.338000
10.502000 -5.487000 -2.723000
11.933000 -6.117000 -2.595000
13.720000 -6.933000 -2.445000
11.192000 -5.836000 -2.665000
12.761000 -6.547000 -2.537000
14.769000 -7.472000 -2.343000
10.481000 -5.578000 -2.729000
11.902000 -6.214000 -2.600000
13.674000 -7.036000 -2.446000
11.143000 -5.918000 -2.665000
12.715000 -6.643000 -2.538000
14.725000 -7.585000 -2.345000
10.451000 -5.666000 -2.734000
11.874000 -6.312000 -2.605000
13.638000 -7.144000 -2.450000
11.108000 -6.007000 -2.668000
12.679000 -6.744000 -2.541000
14.703000 -7.709000 -2.350000
10.400000 -5.741000 -2.732000
11.842000 -6.410000 -2.608000
13.602000 -7.253000 -2.453000
11.084000 -6.104000 -2.674000
12.658000 -6.854000 -2.548000
14.655000 -7.820000 -2.352000
10.372000 -5.829000 -2.737000
11.807000 -6.505000 -2.611000
13.557000 -7.357000 -2.454000
11.042000 -6.189000 -2.675000
12.615000 -6.952000 -2.549000
14.617000 -7.938000 -2.354000
10.327000 -5.910000 -2.737000
11.764000 -6.597000 -2.613000
13.534000 -7.473000 -2.459000
11.020000 -6.287000 -2.681000
12.573000 -7.050000 -2.550000
14.583000 -8.056000 -2.357000
10.304000 -6.002000 -2.743000
11.738000 -6.698000 -2.617000
13.490000 -7.580000 -2.460000
10.982000 -6.377000 -2.683000
12.543000 -7.156000 -2.554000
14.550000 -8.176000 -2.360000
10.273000 -6.089000 -2.746000
11.702000 -6.794000 -2.619000
13.455000 -7.690000 -2.463000
10.940000 -6.463000 -2.683000
12.504000 -7.258000 -2.556000
14.508000 -8.293000 -2.361000
10.228000 -6.170000 -2.746000
11.668000 -6.892000 -2.622000
13.422000 -7.802000 -2.465000
10.910000 -6.557000 -2.687000
12.472000 -7.363000 -2.558000
14.470000 -8.411000 -2.363000
10.199000 -6.259000 -2.750000
11.631000 -6.988000 -2.623000
13.387000 -7.915000 -2.468000
10.876000 -6.651000 -2.689000
12.467000 -7.485000 -2.567000
14.439000 -8.534000 -2.365000
10.174000 -6.352000 -2.754000
11.610000 -7.094000 -2.628000
13.394000 -8.051000 -2.477000
10.856000 -6.752000 -2.695000
12.433000 -7.592000 -2.569000
14.407000 -8.658000 -2.367000
10.140000 -6.441000 -2.757000
11.571000 -7.191000 -2.630000
13.328000 -8.145000 -2.473000
10.814000 -6.840000 -2.695000
12.385000 -7.689000 -2.568000
14.389000 -8.790000 -2.371000
10.105000 -6.528000 -2.758000
11.531000 -7.286000 -2.630000
13.302000 -8.266000 -2.476000
10.780000 -6.934000 -2.697000
12.352000 -7.796000 -2.570000
14.363000 -8.918000 -2.374000
10.065000 -6.612000 -2.759000
11.522000 -7.402000 -2.637000
13.272000 -8.382000 -2.478000
10.756000 -7.034000 -2.701000
12.337000 -7.916000 -2.575000
14.345000 -9.054000 -2.377000
10.044000 -6.710000 -2.764000
11.490000 -7.504000 -2.640000
13.239000 -8.497000 -2.479000
10.713000 -7.122000 -2.700000
12.305000 -8.024000 -2.576000
14.310000 -9.178000 -2.378000
10.006000 -6.797000 -2.764000
11.447000 -7.599000 -2.638000
13.235000 -8.635000 -2.485000
10.692000 -7.227000 -2.704000
12.281000 -8.139000 -2.579000
14.298000 -9.317000 -2.381000
9.976000 -6.889000 -2.766000
11.430000 -7.711000 -2.642000
13.210000 -8.756000 -2.487000
10.663000 -7.326000 -2.706000
12.247000 -8.249000 -2.579000
14.284000 -9.459000 -2.384000
9.963000 -6.995000 -2.773000
11.415000 -7.825000 -2.647000
13.181000 -8.876000 -2.488000
10.632000 -7.423000 -2.708000
12.228000 -8.368000 -2.582000
14.275000 -9.602000 -2.388000
9.929000 -7.084000 -2.774000
11.383000 -7.931000 -2.648000
13.156000 -9.002000 -2.489000
10.604000 -7.525000 -2.709000
12.204000 -8.485000 -2.584000
14.240000 -9.729000 -2.386000
9.901000 -7.180000 -2.776000
11.357000 -8.039000 -2.649000
13.149000 -9.138000 -2.493000
10.577000 -7.626000 -2.711000
12.180000 -8.603000 -2.586000
14.235000 -9.879000 -2.389000
9.874000 -7.278000 -2.778000
11.337000 -8.153000 -2.651000
13.137000 -9.273000 -2.496000
10.567000 -7.741000 -2.717000
12.155000 -8.720000 -2.587000
14.241000 -10.037000 -2.394000
9.839000 -7.368000 -2.777000
11.307000 -8.261000 -2.652000
13.118000 -9.405000 -2.497000
10.528000 -7.836000 -2.715000
12.150000 -8.854000 -2.591000
14.224000 -10.179000 -2.394000
9.796000 -7.454000 -2.774000
11.287000 -8.375000 -2.654000
13.091000 -9.531000 -2.496000
10.508000 -7.945000 -2.717000
12.127000 -8.975000 -2.592000
14.207000 -10.324000 -2.394000
9.787000 -7.567000 -2.781000
11.266000 -8.491000 -2.655000
13.094000 -9.679000 -2.500000
10.489000 -8.054000 -2.720000
12.113000 -9.103000 -2.594000
14.213000 -10.486000 -2.397000
9.763000 -7.668000 -2.782000
11.241000 -8.604000 -2.655000
13.069000 -9.810000 -2.499000
10.466000 -8.164000 -2.721000
12.102000 -9.235000 -2.595000
14.201000 -10.635000 -2.396000
9.746000 -7.774000 -2.785000
11.237000 -8.733000 -2.660000
13.067000 -9.957000 -2.501000
10.441000 -8.271000 -2.721000
12.085000 -9.364000 -2.596000
14.204000 -10.800000 -2.398000
9.721000 -7.877000 -2.785000
11.227000 -8.859000 -2.662000
13.058000 -10.100000 -2.501000
10.436000 -8.395000 -2.726000
12.065000 -9.489000 -2.595000
14.210000 -10.966000 -2.399000
9.711000 -7.992000 -2.791000
11.207000 -8.979000 -2.662000
13.057000 -10.253000 -2.503000
10.421000 -8.511000 -2.727000
12.066000 -9.634000 -2.598000
14.224000 -11.139000 -2.401000
9.683000 -8.092000 -2.790000
11.193000 -9.103000 -2.663000
13.055000 -10.403000 -2.503000
10.398000 -8.622000 -2.727000
12.056000 -9.770000 -2.599000
14.235000 -11.314000 -2.401000
9.660000 -8.198000 -2.789000
11.182000 -9.231000 -2.663000
13.047000 -10.550000 -2.502000
10.397000 -8.752000 -2.732000
12.053000 -9.912000 -2.600000
14.254000 -11.495000 -2.403000
9.655000 -8.319000 -2.794000
11.180000 -9.368000 -2.666000
13.050000 -10.710000 -2.502000
10.379000 -8.870000 -2.730000
12.044000 -10.052000 -2.598000
14.274000 -11.679000 -2.403000
9.640000 -8.432000 -2.795000
11.164000 -9.493000 -2.665000
13.054000 -10.869000 -2.502000
10.364000 -8.989000 -2.731000
12.035000 -10.193000 -2.598000
14.284000 -11.858000 -2.402000
9.624000 -8.546000 -2.795000
11.163000 -9.633000 -2.665000
13.067000 -11.037000 -2.502000
10.371000 -9.129000 -2.736000
12.054000 -10.357000 -2.601000
14.307000 -12.047000 -2.401000
9.614000 -8.666000 -2.797000
11.161000 -9.773000 -2.667000
13.091000 -11.219000 -2.504000
10.353000 -9.248000 -2.733000
12.062000 -10.514000 -2.601000
14.312000 -12.223000 -2.397000
9.613000 -8.794000 -2.801000
11.170000 -9.922000 -2.669000
13.111000 -11.396000 -2.505000
10.356000 -9.388000 -2.736000
12.062000 -10.667000 -2.600000
14.347000 -12.429000 -2.397000
9.592000 -8.905000 -2.797000
11.166000 -10.062000 -2.667000
13.122000 -11.567000 -2.503000
10.359000 -9.526000 -2.738000
12.081000 -10.835000 -2.602000
14.365000 -12.620000 -2.393000
9.588000 -9.033000 -2.800000
11.182000 -10.221000 -2.671000
13.164000 -11.770000 -2.505000
10.351000 -9.657000 -2.736000
12.089000 -10.997000 -2.600000
14.409000 -12.835000 -2.392000
9.594000 -9.169000 -2.803000
11.195000 -10.378000 -2.672000
13.184000 -11.952000 -2.503000
10.341000 -9.787000 -2.734000
12.106000 -11.167000 -2.600000
14.453000 -13.052000 -2.389000
9.588000 -9.297000 -2.802000
11.204000 -10.533000 -2.670000
13.198000 -12.130000 -2.499000
10.364000 -9.947000 -2.739000
12.124000 -11.339000 -2.599000
14.499000 -13.275000 -2.387000
9.591000 -9.433000 -2.804000
11.222000 -10.698000 -2.672000
13.237000 -12.333000 -2.497000
10.364000 -10.088000 -2.736000
12.160000 -11.531000 -2.599000
14.542000 -13.497000 -2.382000
9.594000 -9.570000 -2.805000
11.245000 -10.868000 -2.673000
13.258000 -12.522000 -2.493000
10.373000 -10.238000 -2.736000
12.179000 -11.706000 -2.597000
14.605000 -13.738000 -2.379000
9.604000 -9.714000 -2.805000
11.253000 -11.025000 -2.668000
13.293000 -12.725000 -2.488000
10.400000 -10.405000 -2.740000
12.211000 -11.896000 -2.596000
14.646000 -13.961000 -2.373000
9.611000 -9.858000 -2.806000
11.267000 -11.189000 -2.666000
13.347000 -12.947000 -2.486000
10.419000 -10.567000 -2.739000
12.235000 -12.078000 -2.590000
14.697000 -14.195000 -2.365000
9.634000 -10.016000 -2.810000
11.293000 -11.363000 -2.664000
13.404000 -13.174000 -2.485000
10.428000 -10.719000 -2.737000
12.271000 -12.276000 -2.589000
14.777000 -14.459000 -2.362000
9.642000 -10.161000 -2.807000
11.325000 -11.547000 -2.662000
13.454000 -13.396000 -2.479000
10.457000 -10.892000 -2.738000
12.319000 -12.484000 -2.587000
14.843000 -14.713000 -2.355000
9.666000 -10.324000 -2.810000
11.354000 -11.728000 -2.660000
13.500000 -13.614000 -2.472000
10.469000 -11.048000 -2.732000
12.369000 -12.697000 -2.583000
14.919000 -14.978000 -2.346000
9.687000 -10.482000 -2.810000
11.380000 -11.906000 -2.655000
13.573000 -13.864000 -2.469000
10.499000 -11.223000 -2.731000
12.390000 -12.881000 -2.574000
15.026000 -15.275000 -2.342000
9.688000 -10.620000 -2.802000
11.430000 -12.110000 -2.653000
13.641000 -14.108000 -2.462000
10.530000 -11.400000 -2.729000
12.464000 -13.119000 -2.574000
15.121000 -15.563000 -2.335000
9.716000 -10.787000 -2.802000
11.470000 -12.303000 -2.649000
13.719000 -14.363000 -2.456000
10.559000 -11.574000 -2.724000
12.536000 -13.359000 -2.570000
15.241000 -15.880000 -2.327000
9.734000 -10.941000 -2.798000
11.518000 -12.507000 -2.646000
13.820000 -14.645000 -2.454000
10.605000 -11.768000 -2.724000
12.589000 -13.576000 -2.563000
15.358000 -16.195000 -2.318000
9.779000 -11.128000 -2.798000
11.577000 -12.723000 -2.641000
13.913000 -14.921000 -2.445000
10.642000 -11.950000 -2.719000
12.663000 -13.818000 -2.558000
15.450000 -16.486000 -2.305000
9.815000 -11.304000 -2.797000
11.639000 -12.940000 -2.637000
14.013000 -15.204000 -2.438000
10.681000 -12.136000 -2.712000
12.737000 -14.062000 -2.550000
15.566000 -16.804001 -2.290000
9.860000 -11.488000 -2.796000
11.691000 -13.149000 -2.630000
14.124000 -15.501000 -2.431000
10.723000 -12.324000 -2.705000
12.817000 -14.310000 -2.542000
15.701000 -17.142000 -2.278000
9.891000 -11.656000 -2.788000
11.755000 -13.368000 -2.621000
14.234000 -15.796000 -2.419000
10.798000 -12.548000 -2.705000
12.908000 -14.573000 -2.535000
15.837000 -17.485001 -2.264000
9.945000 -11.851000 -2.786000
11.857000 -13.631000 -2.621000
14.354000 -16.103001 -2.409000
10.842000 -12.737000 -2.694000
13.005000 -14.841000 -2.525000
16.021999 -17.882000 -2.252000
9.997000 -12.041000 -2.782000
11.920000 -13.851000 -2.610000
14.469000 -16.407000 -2.396000
10.919000 -12.963000 -2.691000
13.140000 -15.151000 -2.522000
16.166000 -18.233999 -2.232000
10.058000 -12.239000 -2.777000
12.013000 -14.101000 -2.602000
14.615000 -16.743999 -2.383000
11.004000 -13.196000 -2.688000
13.251000 -15.437000 -2.512000
16.357000 -18.639000 -2.218000
10.122000 -12.441000 -2.772000
12.104000 -14.350000 -2.593000
14.768000 -17.087999 -2.370000
11.086000 -13.424000 -2.679000
13.350000 -15.705000 -2.495000
16.556000 -19.056000 -2.198000
10.196000 -12.650000 -2.768000
12.210000 -14.614000 -2.585000
14.914000 -17.424999 -2.355000
11.158000 -13.637000 -2.668000
13.507000 -16.039000 -2.489000
16.771000 -19.490000 -2.180000
10.258000 -12.843000 -2.756000
12.317000 -14.877000 -2.573000
15.089000 -17.794001 -2.338000
11.260000 -13.885000 -2.663000
13.658000 -16.365999 -2.479000
17.016001 -19.959000 -2.163000
10.353000 -13.073000 -2.753000
12.435000 -15.150000 -2.561000
15.253000 -18.149000 -2.318000
11.368000 -14.138000 -2.654000
13.814000 -16.697001 -2.464000
17.270000 -20.438999 -2.140000
10.437000 -13.287000 -2.745000
12.574000 -15.446000 -2.553000
15.456000 -18.548000 -2.302000
11.492000 -14.406000 -2.647000
13.955000 -17.006001 -2.446000
17.548000 -20.947001 -2.118000
10.521000 -13.494000 -2.732000
12.717000 -15.743000 -2.540000
15.677000 -18.966999 -2.282000
11.595000 -14.644000 -2.633000
14.146000 -17.372999 -2.434000
17.812000 -21.436001 -2.091000
10.636000 -13.738000 -2.726000
12.869000 -16.048000 -2.527000
15.926000 -19.415001 -2.265000
11.727000 -14.914000 -2.623000
14.349000 -17.750999 -2.418000
18.098000 -21.948000 -2.060000
10.757000 -13.985000 -2.719000
13.030000 -16.360001 -2.514000
16.188999 -19.879999 -2.246000
11.860000 -15.178000 -2.610000
14.542000 -18.111000 -2.399000
18.424999 -22.506001 -2.031000
10.864000 -14.206000 -2.705000
13.197000 -16.674000 -2.497000
16.462000 -20.353001 -2.222000
11.981000 -15.425000 -2.591000
14.756000 -18.495001 -2.381000
18.766001 -23.079000 -2.000000
10.989000 -14.444000 -2.693000
13.387000 -17.009001 -2.482000
16.740999 -20.825001 -2.197000
12.150000 -15.724000 -2.580000
14.969000 -18.870001 -2.356000
19.180000 -23.739000 -1.969000
11.129000 -14.696000 -2.681000
13.570000 -17.330999 -2.464000
17.021000 -21.295000 -2.169000
12.333000 -16.034000 -2.569000
15.226000 -19.292000 -2.337000
19.514000 -24.291000 -1.926000
11.262000 -14.930000 -2.665000
13.779000 -17.679001 -2.444000
17.370001 -21.844000 -2.142000
12.510000 -16.330000 -2.553000
15.502000 -19.733999 -2.317000
19.947001 -24.959999 -1.888000
11.423000 -15.192000 -2.653000
14.007000 -18.042000 -2.425000
17.669001 -22.322001 -2.106000
12.699000 -16.632999 -2.536000
15.743000 -20.120001 -2.285000
20.518999 -25.798000 -1.856000
11.608000 -15.477000 -2.642000
14.250000 -18.417000 -2.407000
18.077999 -22.930000 -2.078000
12.904000 -16.947001 -2.519000
16.058001 -20.594999 -2.261000
20.966999 -26.473000 -1.807000
11.773000 -15.726000 -2.624000
14.485000 -18.771000 -2.380000
18.447001 -23.480000 -2.040000
13.115000 -17.259001 -2.499000
16.400999 -21.094000 -2.238000
21.542999 -27.298000 -1.763000
11.971000 -16.011000 -2.611000
14.760000 -19.167999 -2.359000
18.863001 -24.077999 -2.003000
13.326000 -17.559999 -2.476000
16.719999 -21.549999 -2.204000
22.163000 -28.167000 -1.715000
12.161000 -16.273001 -2.591000
15.067000 -19.594999 -2.339000
19.278999 -24.665001 -1.960000
13.583000 -17.910999 -2.459000
17.089001 -22.059999 -2.175000
22.732000 -28.959999 -1.657000
12.374000 -16.552999 -2.574000
15.364000 -19.995001 -2.310000
19.848000 -25.434000 -1.926000
13.847000 -18.261000 -2.438000
17.419001 -22.509001 -2.137000
23.308001 -29.745001 -1.594000
12.604000 -16.844999 -2.557000
15.643000 -20.361000 -2.278000
20.322001 -26.066999 -1.879000
14.094000 -18.573999 -2.411000
17.893999 -23.127001 -2.108000
24.288000 -31.035000 -1.547000
12.826000 -17.115999 -2.534000
15.993000 -20.805000 -2.252000
20.862000 -26.768999 -1.832000
14.358000 -18.896999 -2.384000
18.320999 -23.672001 -2.071000
24.912001 -31.850000 -1.472000
13.034000 -17.353001 -2.506000
16.379000 -21.283001 -2.224000
21.525999 -27.615000 -1.787000
14.668000 -19.267000 -2.360000
18.740000 -24.188000 -2.030000
25.722000 -32.882000 -1.400000
13.326000 -17.691000 -2.492000
16.742001 -21.715000 -2.191000
22.052000 -28.264999 -1.727000
14.992000 -19.643999 -2.335000
19.179001 -24.715000 -1.982000
26.507999 -33.862999 -1.317000
13.573000 -17.952999 -2.464000
17.121000 -22.153000 -2.156000
22.747999 -29.114000 -1.674000
15.298000 -19.980000 -2.304000
19.746000 -25.391001 -1.945000
26.624001 -33.970001 -1.199000
13.871000 -18.271999 -2.444000
17.516001 -22.594000 -2.117000
23.613001 -30.157000 -1.624000
15.632000 -20.337000 -2.273000
20.297001 -26.025000 -1.901000
26.658001 -33.949001 -1.076000
14.156000 -18.559999 -2.418000
17.936001 -23.054001 -2.079000
24.236000 -30.868000 -1.553000
16.018999 -20.749001 -2.248000
20.764999 -26.533001 -1.844000
26.653999 -33.858002 -0.950000
14.445000 -18.834999 -2.390000
18.386999 -23.534000 -2.041000
25.129000 -31.903999 -1.491000
16.377001 -21.106001 -2.214000
21.402000 -27.238001 -1.798000
26.726000 -33.844002 -0.829000
14.767000 -19.142000 -2.365000
18.884001 -24.054001 -2.002000
25.726000 -32.534000 -1.405000
16.753000 -21.473000 -2.179000
22.049000 -27.934000 -1.744000
25.593000 -32.291000 -0.677000
15.114000 -19.466999 -2.341000
19.278999 -24.427000 -1.950000
25.643999 -32.287998 -1.282000
17.132000 -21.826000 -2.142000
22.743999 -28.667999 -1.693000
0.000000 0.000000 0.000000
15.425000 -19.731001 -2.307000
19.861000 -25.017000 -1.911000
0.000000 0.000000 0.000000
17.541000 -22.202000 -2.106000
23.545000 -29.511000 -1.643000
27.920000 -34.912998 -0.485000
15.786000 -20.044001 -2.280000
20.346001 -25.466999 -1.862000
29.353001 -36.575001 -1.198000
17.950001 -22.556999 -2.066000
24.259001 -30.219000 -1.578000
28.101000 -34.955002 -0.365000
16.159000 -20.358000 -2.252000
20.971001 -26.072001 -1.821000
29.702999 -36.790001 -1.081000
18.381001 -22.929001 -2.027000
24.802000 -30.691999 -1.502000
28.347000 -35.054001 -0.243000
16.502001 -20.617001 -2.216000
21.462000 -26.487000 -1.762000
30.006001 -36.926998 -0.961000
18.855000 -23.336000 -1.989000
25.712999 -31.599001 -1.443000
28.591000 -35.137001 -0.124000
16.893000 -20.924000 -2.186000
22.062000 -27.018999 -1.713000
28.757000 -35.143002 -0.796000
19.308001 -23.695999 -1.946000
26.448000 -32.256001 -1.365000
28.909000 -35.289001 -0.005000
17.266001 -21.195999 -2.151000
22.806999 -27.709999 -1.669000
29.136000 -35.346001 -0.684000
19.764999 -24.047001 -1.902000
27.337000 -33.077999 -1.296000
29.181999 -35.363998 0.114000
17.669001 -21.487000 -2.116000
23.365999 -28.146000 -1.606000
29.450001 -35.453999 -0.570000
20.263000 -24.434000 -1.859000
28.128000 -33.754002 -1.216000
29.490000 -35.466999 0.233000
18.038000 -21.723000 -2.078000
24.018999 -28.679001 -1.550000
29.858999 -35.648998 -0.457000
20.698999 -24.724001 -1.806000
29.402000 -34.979000 -1.147000
29.322001 -34.983002 0.344000
18.462000 -22.014000 -2.044000
24.813000 -29.357000 -1.499000
30.237000 -35.794998 -0.345000
21.270000 -25.160000 -1.767000
28.393999 -33.474998 -0.997000
30.340000 -35.893002 0.473000
18.893000 -22.296000 -2.007000
25.351000 -29.707001 -1.426000
30.056999 -35.266998 -0.229000
21.789000 -25.518000 -1.719000
30.537001 -35.667999 -0.954000
30.521999 -35.792999 0.587000
19.270000 -22.503000 -1.966000
26.267000 -30.482000 -1.376000
30.664000 -35.646999 -0.118000
22.280001 -25.823999 -1.666000
30.747999 -35.566002 -0.841000
30.662001 -35.632000 0.698000
19.705999 -22.764000 -1.929000
26.941000 -30.950001 -1.309000
30.833000 -35.502998 -0.009000
22.896999 -26.261999 -1.623000
30.923000 -35.416000 -0.735000
30.756001 -35.401001 0.807000
20.079000 -22.940001 -1.882000
27.697001 -31.489000 -1.240000
30.910999 -35.244999 0.097000
23.336000 -26.479000 -1.565000
31.000000 -35.144001 -0.627000
30.850000 -35.167000 0.912000
20.555000 -23.219999 -1.848000
28.157000 -31.673000 -1.161000
30.941999 -34.919998 0.202000
23.999001 -26.931000 -1.519000
31.099001 -34.886002 -0.520000
30.896999 -34.868999 1.012000
20.983999 -23.437000 -1.807000
29.232000 -32.529999 -1.103000
31.903000 -35.632000 0.311000
24.507000 -27.193001 -1.465000
31.148001 -34.567001 -0.419000
31.514999 -35.198002 1.131000
21.434999 -23.660999 -1.765000
29.878000 -32.880001 -1.024000
31.690001 -35.022999 0.409000
25.224001 -27.674000 -1.420000
28.908001 -31.732000 -0.297000
32.680000 -36.116001 1.269000
21.868000 -23.856001 -1.724000
0.000000 0.000000 0.000000
0.000000 0.000000 0.000000
25.780001 -27.955000 -1.363000
29.023001 -31.503000 -0.205000
32.896999 -35.966999 1.372000
22.311001 -24.049999 -1.683000
29.099001 -31.302999 -0.814000
34.852001 -37.675999 0.657000
26.316000 -28.201000 -1.308000
29.117001 -31.247000 -0.121000
32.931000 -35.605999 1.467000
22.812000 -24.292999 -1.642000
0.000000 0.000000 0.000000
34.719002 -37.111000 0.751000
27.120001 -28.718000 -1.264000
0.000000 0.000000 0.000000
34.855000 -37.263000 1.642000
23.163000 -24.365000 -1.595000
0.000000 0.000000 0.000000
36.167000 -38.216000 0.883000
27.802000 -29.084000 -1.209000
29.854000 -31.297001 0.045000
36.194000 -38.254002 1.796000
23.698999 -24.622999 -1.559000
0.000000 0.000000 0.000000
0.000000 0.000000 0.000000
28.379000 -29.327000 -1.154000
30.808001 -31.916000 0.126000
36.944000 -38.591000 1.926000
24.221001 -24.849001 -1.519000
0.000000 0.000000 0.000000
0.000000 0.000000 0.000000
29.083000 -29.684999 -1.101000
30.353001 -31.068001 0.201000
37.681000 -38.897999 2.049000
24.704000 -25.027000 -1.480000
0.000000 0.000000 0.000000
0.000000 0.000000 0.000000
29.416000 -29.649000 -1.032000
0.000000 0.000000 0.000000
38.421001 -39.185001 2.178000
25.157000 -25.164000 -1.438000
0.000000 0.000000 0.000000
30.909000 -31.132000 1.051000
29.957001 -29.815001 -0.976000
31.004999 -30.961000 0.354000
38.800999 -39.095001 2.280000
25.684999 -25.361000 -1.397000
31.638000 -31.261999 -0.281000
0.000000 0.000000 0.000000
30.913000 -30.379000 -0.931000
30.139000 -29.724001 0.411000
38.841000 -38.654999 2.358000
26.051001 -25.389999 -1.353000
31.826000 -31.051001 -0.212000
39.171001 -38.487000 1.501000
31.283001 -30.348000 -0.865000
30.254999 -29.462999 0.481000
39.115002 -38.444000 2.453000
26.660000 -25.648001 -1.319000
33.116001 -31.900999 -0.148000
37.566002 -36.445999 1.511000
0.000000 0.000000 0.000000
30.455999 -29.284000 0.546000
39.338001 -38.180000 2.538000
26.941000 -25.577999 -1.267000
30.403999 -28.912001 -0.069000
33.217999 -31.816999 1.401000
32.546001 -30.761999 -0.758000
0.000000 0.000000 0.000000
40.701000 -39.000999 2.692000
27.583000 -25.843000 -1.237000
33.797001 -31.724001 -0.010000
37.748001 -35.696999 1.659000
33.549000 -31.292999 -0.708000
32.090000 -30.063999 0.697000
40.854000 -38.645000 2.772000
27.990000 -25.878000 -1.195000
33.879002 -31.386999 0.052000
37.936001 -35.411999 1.729000
33.972000 -31.271000 -0.651000
38.026001 -35.166000 0.894000
41.055000 -38.335999 2.848000
28.554001 -26.046000 -1.158000
38.243999 -34.963001 0.131000
38.022999 -35.028999 1.797000
34.431999 -31.275999 -0.595000
32.346001 -29.521000 0.813000
41.182999 -37.955002 2.915000
29.261000 -26.334000 -1.130000
38.356998 -34.605000 0.198000
38.165001 -34.701000 1.861000
32.455002 -29.084999 -0.499000
32.437000 -29.209999 0.869000
41.348999 -37.605000 2.986000
29.549000 -26.236000 -1.086000
38.514000 -34.285999 0.261000
38.306999 -34.370998 1.921000
32.532001 -28.763000 -0.446000
38.490002 -34.203999 1.090000
