# This PCD file was generated using the MATLAB® pcwrite function
# from Computer Vision Toolbox®.
# .PCD v.7 - Point Cloud Data file format
VERSION .7
FIELDS x y z
SIZE 4 4 4
TYPE F F F
COUNT 1 1 1
WIDTH 1654
HEIGHT 1
VIEWPOINT 0 0 0 1 0 0 0
POINTS 1654
DATA ascii
24.705999 2.893000 2.006000
19.320000 2.251000 -0.017000
20.052999 2.369000 0.641000
21.299999 2.544000 1.373000
19.695999 2.348000 0.315000
20.627001 2.490000 0.983000
24.461000 2.991000 1.992000
19.320000 2.351000 -0.014000
20.083000 2.475000 0.646000
21.441999 2.671000 1.386000
19.698000 2.451000 0.319000
20.684999 2.603000 0.990000
24.209999 3.087000 1.977000
19.358999 2.454000 -0.010000
20.165001 2.588000 0.653000
21.622000 2.807000 1.403000
19.718000 2.554000 0.323000
20.726999 2.715000 0.997000
23.969000 3.182000 1.963000
19.323000 2.548000 -0.007000
20.323999 2.715000 0.662000
21.704000 2.930000 1.413000
19.725000 2.655000 0.326000
20.865000 2.843000 1.008000
23.747000 3.277000 1.951000
19.316999 2.646000 -0.004000
20.362000 2.824000 0.667000
23.677999 3.320000 1.548000
19.752001 2.762000 0.331000
21.034000 2.975000 1.021000
23.521999 3.368000 1.938000
19.378000 2.754000 0.000000
20.506001 2.950000 0.676000
23.441999 3.411000 1.538000
19.787001 2.868000 0.335000
21.158001 3.102000 1.031000
23.283001 3.458000 1.925000
19.392000 2.856000 0.002000
20.648001 3.078000 0.686000
23.226000 3.500000 1.530000
19.945999 2.994000 0.342000
21.282000 3.232000 1.043000
23.059999 3.546000 1.913000
19.445000 2.964000 0.006000
20.721001 3.197000 0.693000
23.014999 3.588000 1.521000
20.240999 3.144000 0.351000
21.344000 3.353000 1.051000
22.855000 3.635000 1.902000
19.478001 3.070000 0.010000
20.798000 3.317000 0.700000
22.792000 3.674000 1.512000
20.336000 3.264000 0.357000
21.546000 3.497000 1.066000
22.628000 3.720000 1.889000
19.462000 3.168000 0.013000
20.936001 3.448000 0.709000
22.572001 3.758000 1.504000
20.420000 3.383000 0.363000
21.697001 3.637000 1.079000
22.430000 3.806000 1.879000
19.448000 3.266000 0.017000
21.004999 3.570000 0.717000
22.367001 3.842000 1.496000
20.444000 3.494000 0.368000
21.761999 3.762000 1.087000
22.225000 3.889000 1.869000
19.639999 3.402000 0.021000
21.084000 3.694000 0.724000
22.171000 3.926000 1.489000
20.490999 3.610000 0.373000
21.905001 3.902000 1.100000
22.011000 3.971000 1.857000
19.878000 3.546000 0.026000
21.099001 3.808000 0.730000
21.962999 4.007000 1.481000
20.570999 3.732000 0.379000
21.913000 4.022000 1.107000
21.811001 4.054000 1.848000
19.986000 3.673000 0.031000
21.117001 3.926000 0.737000
21.763000 4.089000 1.475000
20.618000 3.852000 0.386000
21.767000 4.112000 1.106000
21.613001 4.134000 1.838000
20.077000 3.795000 0.035000
21.190001 4.051000 0.744000
21.584999 4.171000 1.470000
20.721001 3.981000 0.392000
21.563999 4.187000 1.101000
21.422001 4.212000 1.829000
20.143999 3.913000 0.039000
21.209999 4.168000 0.751000
21.367001 4.244000 1.461000
20.789000 4.103000 0.398000
21.371000 4.264000 1.098000
21.240000 4.292000 1.820000
20.198999 4.031000 0.044000
21.275999 4.295000 0.758000
21.198999 4.324000 1.456000
20.812000 4.218000 0.404000
21.195999 4.344000 1.094000
21.048000 4.367000 1.811000
20.254999 4.150000 0.049000
21.141001 4.380000 0.759000
21.013000 4.400000 1.450000
20.854000 4.339000 0.410000
21.000000 4.416000 1.090000
20.858999 4.441000 1.801000
20.301001 4.266000 0.053000
20.961000 4.455000 0.758000
20.816999 4.472000 1.443000
20.905001 4.460000 0.416000
20.802999 4.487000 1.086000
20.687000 4.518000 1.793000
20.374001 4.390000 0.058000
20.775000 4.528000 0.757000
20.650999 4.548000 1.438000
20.763000 4.541000 0.418000
20.627001 4.561000 1.083000
20.518000 4.592000 1.786000
20.443001 4.514000 0.063000
20.586000 4.597000 0.756000
20.472000 4.620000 1.432000
20.582001 4.613000 0.420000
20.452000 4.632000 1.080000
20.322001 4.660000 1.776000
20.483000 4.633000 0.067000
20.420000 4.670000 0.756000
20.287001 4.690000 1.426000
20.423000 4.686000 0.421000
20.289000 4.706000 1.078000
20.149000 4.732000 1.768000
20.357000 4.714000 0.072000
20.250000 4.741000 0.755000
20.117001 4.761000 1.420000
20.247999 4.756000 0.423000
20.103001 4.773000 1.074000
19.975000 4.801000 1.760000
20.188000 4.783000 0.076000
20.070999 4.809000 0.754000
19.940001 4.829000 1.415000
20.063999 4.822000 0.424000
19.948000 4.845000 1.071000
19.806999 4.871000 1.753000
20.018000 4.852000 0.080000
19.909000 4.879000 0.754000
19.774000 4.897000 1.410000
19.899000 4.890000 0.426000
19.775999 4.913000 1.069000
19.642000 4.941000 1.745000
19.837999 4.916000 0.084000
19.733999 4.943000 0.753000
19.615999 4.968000 1.405000
19.721001 4.954000 0.428000
19.610001 4.980000 1.066000
19.478001 5.008000 1.738000
19.676001 4.983000 0.088000
19.566000 5.010000 0.752000
19.440001 5.031000 1.399000
19.566999 5.022000 0.429000
19.437000 5.043000 1.062000
19.304001 5.072000 1.730000
19.513000 5.048000 0.092000
19.410000 5.077000 0.752000
19.284000 5.098000 1.395000
19.399000 5.086000 0.431000
19.282000 5.110000 1.061000
19.134001 5.135000 1.722000
19.351999 5.112000 0.095000
19.235001 5.137000 0.751000
19.108999 5.160000 1.389000
19.233000 5.149000 0.432000
19.104000 5.169000 1.057000
19.047001 5.219000 1.722000
19.198999 5.178000 0.100000
19.087999 5.205000 0.750000
19.030001 5.246000 1.390000
19.087000 5.215000 0.434000
18.961000 5.237000 1.055000
19.098000 5.341000 1.734000
19.044001 5.242000 0.103000
18.940001 5.271000 0.751000
19.066999 5.363000 1.400000
18.926001 5.277000 0.435000
19.035999 5.365000 1.066000
19.158001 5.467000 1.747000
18.903999 5.308000 0.107000
19.000000 5.393000 0.759000
19.114000 5.485000 1.410000
18.959999 5.393000 0.442000
19.076000 5.484000 1.074000
19.209000 5.592000 1.759000
18.922001 5.419000 0.112000
19.054001 5.516000 0.766000
19.176001 5.613000 1.422000
19.021999 5.517000 0.448000
19.129000 5.608000 1.083000
19.261999 5.718000 1.772000
18.976000 5.540000 0.117000
19.101000 5.638000 0.775000
19.219999 5.735000 1.432000
19.059000 5.635000 0.454000
19.180000 5.732000 1.093000
19.306000 5.842000 1.784000
19.030001 5.663000 0.122000
19.143999 5.759000 0.782000
19.270000 5.861000 1.443000
19.112000 5.759000 0.461000
19.233999 5.858000 1.103000
19.365999 5.973000 1.797000
19.082001 5.786000 0.127000
19.191999 5.883000 0.789000
19.327999 5.990000 1.455000
19.157000 5.881000 0.468000
19.278999 5.983000 1.111000
22.493000 7.069000 2.098000
19.131001 5.909000 0.132000
19.240000 6.008000 0.798000
19.403000 6.125000 1.468000
19.207001 6.006000 0.474000
19.337999 6.113000 1.122000
22.292999 7.136000 2.088000
19.176001 6.032000 0.137000
19.285000 6.132000 0.806000
23.070000 7.418000 1.754000
19.252001 6.131000 0.481000
22.471001 7.232000 1.311000
22.150000 7.221000 2.084000
19.228001 6.159000 0.142000
22.969999 7.436000 0.967000
22.930000 7.508000 1.753000
23.077999 7.481000 0.583000
22.320000 7.314000 1.310000
21.972000 7.293000 2.077000
23.033001 7.509000 0.176000
22.257999 7.335000 0.943000
22.756001 7.584000 1.748000
22.879000 7.550000 0.584000
22.754999 7.590000 1.344000
21.903000 7.399000 2.080000
22.879999 7.592000 0.180000
22.076000 7.404000 0.943000
22.554001 7.649000 1.741000
22.747999 7.639000 0.587000
22.575001 7.662000 1.341000
21.865000 7.517000 2.085000
22.688999 7.660000 0.184000
21.948000 7.489000 0.945000
22.363001 7.718000 1.735000
22.166000 7.572000 0.578000
22.374001 7.727000 1.336000
21.715000 7.596000 2.081000
22.486000 7.721000 0.188000
22.371000 7.766000 0.969000
22.212000 7.798000 1.732000
21.760000 7.560000 0.574000
22.177999 7.791000 1.333000
21.525999 7.659000 2.072000
22.334000 7.801000 0.192000
22.188999 7.834000 0.969000
22.025999 7.864000 1.726000
21.587999 7.629000 0.575000
22.041000 7.873000 1.332000
21.767000 7.877000 2.104000
21.606001 7.674000 0.191000
21.983999 7.892000 0.967000
21.834999 7.929000 1.720000
21.999001 7.904000 0.592000
21.856001 7.937000 1.329000
21.200001 7.801000 2.059000
21.372999 7.716000 0.194000
21.870001 7.982000 0.968000
21.722000 8.018000 1.720000
21.833000 7.973000 0.593000
21.716000 8.019000 1.328000
20.986000 7.856000 2.047000
21.240999 7.801000 0.198000
21.688999 8.060000 0.968000
21.521000 8.095000 1.713000
21.646999 8.062000 0.595000
21.490000 8.097000 1.323000
20.881001 7.976000 2.049000
21.587999 8.095000 0.208000
21.464001 8.143000 0.967000
21.299999 8.180000 1.707000
21.427999 8.147000 0.597000
21.257000 8.178000 1.319000
20.763000 8.100000 2.049000
21.389000 8.189000 0.212000
21.246000 8.229000 0.965000
21.106001 8.274000 1.701000
21.202000 8.227000 0.598000
21.016001 8.252000 1.313000
20.829000 8.293000 2.068000
21.145000 8.261000 0.216000
21.011000 8.305000 0.963000
20.870001 8.351000 1.693000
20.985001 8.311000 0.599000
20.830999 8.347000 1.311000
19.080000 7.752000 1.905000
20.969999 8.358000 0.220000
19.194000 7.740000 0.887000
19.052000 7.778000 1.555000
19.194000 7.754000 0.554000
19.073999 7.797000 1.209000
18.900999 7.835000 1.898000
19.155001 7.788000 0.206000
19.011000 7.820000 0.886000
18.868999 7.857000 1.550000
19.023001 7.837000 0.555000
18.872999 7.867000 1.204000
19.106001 8.078000 1.929000
18.964001 7.862000 0.209000
19.139999 8.029000 0.899000
19.136000 8.127000 1.582000
19.201000 8.067000 0.567000
19.188999 8.157000 1.233000
19.174000 8.266000 1.947000
19.253000 8.136000 0.217000
19.218000 8.218000 0.910000
19.226999 8.324000 1.599000
19.282000 8.257000 0.575000
19.260000 8.347000 1.246000
19.263000 8.467000 1.967000
19.334000 8.330000 0.223000
19.305000 8.416000 0.922000
19.304001 8.518000 1.615000
19.370001 8.453000 0.584000
19.355000 8.548000 1.260000
19.327999 8.659000 1.985000
19.412001 8.522000 0.229000
19.379999 8.609000 0.932000
19.361000 8.709000 1.629000
19.445999 8.649000 0.592000
19.368000 8.717000 1.270000
19.181999 8.756000 1.980000
19.482000 8.712000 0.234000
19.302000 8.735000 0.935000
19.402000 8.891000 1.642000
19.318001 8.752000 0.594000
19.440001 8.914000 1.282000
19.261999 8.960000 1.999000
19.496000 8.883000 0.239000
19.393000 8.940000 0.947000
19.240000 8.980000 1.637000
19.224001 8.871000 0.596000
19.222000 8.977000 1.276000
19.068001 9.034000 1.989000
19.346001 8.976000 0.241000
19.231001 9.029000 0.945000
19.059999 9.063000 1.631000
19.046000 8.952000 0.596000
19.059000 9.065000 1.273000
18.872999 9.106000 1.979000
19.197001 9.069000 0.243000
19.031000 9.098000 0.942000
18.844000 9.124000 1.621000
18.907000 9.047000 0.596000
18.888000 9.147000 1.268000
18.722000 9.200000 1.973000
18.996000 9.138000 0.244000
18.827999 9.164000 0.938000
18.673000 9.204000 1.615000
18.792999 9.154000 0.597000
18.700001 9.219000 1.262000
18.518999 9.264000 1.962000
18.792999 9.200000 0.244000
18.638000 9.234000 0.934000
18.471001 9.270000 1.606000
18.614000 9.230000 0.596000
18.483999 9.275000 1.255000
18.329000 9.333000 1.951000
18.620001 9.277000 0.245000
18.490000 9.323000 0.932000
18.327000 9.360000 1.601000
18.430000 9.299000 0.594000
18.330999 9.362000 1.251000
18.136999 9.401000 1.940000
18.466000 9.363000 0.246000
18.302000 9.390000 0.928000
18.136999 9.426000 1.592000
18.320000 9.404000 0.594000
18.179001 9.446000 1.246000
17.993000 9.490000 1.934000
18.254999 9.417000 0.245000
18.097000 9.448000 0.922000
17.912001 9.473000 1.580000
18.129000 9.468000 0.592000
17.969999 9.501000 1.239000
17.799000 9.551000 1.922000
18.073000 9.483000 0.245000
17.962000 9.539000 0.919000
17.763000 9.557000 1.574000
17.926001 9.524000 0.588000
17.804001 9.576000 1.232000
17.608999 9.614000 1.910000
17.945999 9.578000 0.245000
17.781000 9.605000 0.915000
17.563000 9.611000 1.563000
17.815001 9.626000 0.587000
17.636999 9.648000 1.226000
17.488001 9.712000 1.905000
17.736000 9.627000 0.243000
17.580999 9.659000 0.908000
17.346001 9.656000 1.550000
17.615000 9.679000 0.584000
17.454000 9.710000 1.219000
17.273001 9.756000 1.890000
17.583000 9.704000 0.242000
17.452000 9.749000 0.905000
17.169001 9.718000 1.540000
17.436001 9.742000 0.579000
17.294001 9.784000 1.212000
17.100000 9.823000 1.877000
17.421000 9.776000 0.241000
17.266001 9.807000 0.899000
16.948999 9.755000 1.527000
17.283001 9.818000 0.576000
17.135000 9.855000 1.205000
16.961000 9.906000 1.869000
17.226999 9.828000 0.237000
17.089001 9.869000 0.891000
16.705999 9.777000 1.510000
17.091999 9.870000 0.571000
16.938000 9.904000 1.195000
16.757999 9.951000 1.855000
17.096001 9.913000 0.235000
16.941999 9.945000 0.886000
16.707001 9.939000 1.515000
16.962000 9.957000 0.567000
16.813000 9.994000 1.189000
16.656000 10.055000 1.849000
16.906000 9.964000 0.233000
16.743999 9.990000 0.878000
16.066000 9.715000 1.462000
16.791000 10.017000 0.562000
16.642000 10.054000 1.180000
16.462000 10.101000 1.833000
16.771000 10.046000 0.229000
16.620001 10.079000 0.873000
16.186001 9.949000 1.477000
16.641001 10.089000 0.557000
16.490000 10.124000 1.173000
16.305000 10.169000 1.822000
16.589001 10.097000 0.225000
16.423000 10.119000 0.863000
15.767000 9.848000 1.442000
16.462000 10.142000 0.550000
16.305000 10.173000 1.161000
16.135000 10.225000 1.808000
16.438999 10.167000 0.221000
16.311001 10.213000 0.859000
15.825000 10.044000 1.451000
16.330999 10.223000 0.545000
16.186001 10.261000 1.154000
16.000000 10.305000 1.798000
16.274000 10.227000 0.216000
16.118000 10.254000 0.848000
15.532000 10.016000 1.427000
16.136000 10.262000 0.537000
15.974000 10.289000 1.141000
15.816000 10.351000 1.782000
16.131001 10.297000 0.211000
15.977000 10.326000 0.840000
15.580000 10.208000 1.434000
16.004999 10.341000 0.531000
15.864000 10.382000 1.133000
15.668000 10.417000 1.769000
15.955000 10.346000 0.205000
15.805000 10.377000 0.831000
15.179000 10.104000 1.400000
15.834000 10.391000 0.523000
15.197000 10.102000 1.086000
15.043000 10.161000 1.701000
15.820000 10.420000 0.199000
15.177000 10.122000 0.796000
15.019000 10.154000 1.386000
15.193000 10.127000 0.499000
15.182000 10.251000 1.086000
15.169000 10.409000 1.719000
15.168000 10.147000 0.186000
15.223000 10.311000 0.797000
14.950000 10.268000 1.380000
15.288000 10.351000 0.498000
15.197000 10.422000 1.085000
15.204000 10.596000 1.726000
15.314000 10.405000 0.184000
15.370000 10.573000 0.803000
14.881000 10.381000 1.375000
15.395000 10.585000 0.499000
15.246000 10.618000 1.088000
15.069000 10.668000 1.711000
15.327000 10.576000 0.178000
15.237000 10.645000 0.793000
14.697000 10.411000 1.358000
15.229000 10.632000 0.489000
15.079000 10.665000 1.075000
14.900000 10.712000 1.694000
15.176000 10.633000 0.170000
15.069000 10.689000 0.780000
14.627000 10.523000 1.351000
15.089000 10.698000 0.478000
14.944000 10.732000 1.063000
14.779000 10.789000 1.682000
15.004000 10.674000 0.162000
14.945000 10.765000 0.771000
14.497000 10.591000 1.338000
14.951000 10.763000 0.469000
14.807000 10.798000 1.050000
14.619000 10.838000 1.663000
14.880000 10.748000 0.152000
14.775000 10.805000 0.757000
14.355000 10.647000 1.324000
14.792000 10.810000 0.458000
14.640000 10.839000 1.035000
14.475000 10.897000 1.647000
14.730000 10.802000 0.143000
14.637000 10.868000 0.744000
14.271000 10.748000 1.313000
14.671000 10.885000 0.446000
14.511000 10.907000 1.022000
14.351000 10.968000 1.632000
14.572000 10.847000 0.133000
14.519000 10.945000 0.734000
14.134000 10.807000 1.299000
14.512000 10.931000 0.435000
14.388000 10.979000 1.008000
14.190000 11.011000 1.612000
14.446000 10.918000 0.122000
14.342000 10.974000 0.718000
14.016000 10.879000 1.284000
14.364000 10.982000 0.423000
14.217000 11.013000 0.992000
14.057000 11.074000 1.596000
14.299000 10.969000 0.111000
14.231000 11.054000 0.705000
13.954000 10.995000 1.274000
14.250000 11.060000 0.409000
14.110000 11.094000 0.978000
13.940000 11.148000 1.580000
14.158000 11.023000 0.100000
14.089000 11.108000 0.691000
13.838000 11.068000 1.259000
14.078000 11.090000 0.396000
13.961000 11.142000 0.960000
13.767000 11.176000 1.556000
14.025000 11.084000 0.087000
13.924000 11.141000 0.674000
13.720000 11.138000 1.243000
13.960000 11.161000 0.383000
13.802000 11.180000 0.943000
13.649000 11.247000 1.539000
13.888000 11.140000 0.074000
13.806000 11.212000 0.659000
13.625000 11.227000 1.228000
13.834000 11.225000 0.367000
13.682000 11.248000 0.927000
13.526000 11.311000 1.521000
13.740000 11.184000 0.061000
13.685000 11.280000 0.644000
13.509000 11.297000 1.212000
13.701000 11.283000 0.353000
13.568000 11.321000 0.911000
13.365000 11.344000 1.497000
13.636000 11.264000 0.047000
13.514000 11.303000 0.626000
13.361000 11.338000 1.191000
13.538000 11.312000 0.337000
13.392000 11.339000 0.889000
13.241000 11.406000 1.477000
13.506000 11.324000 0.032000
13.391000 11.368000 0.609000
13.254000 11.415000 1.173000
13.430000 11.387000 0.321000
13.287000 11.414000 0.872000
13.124000 11.471000 1.458000
13.361000 11.366000 0.017000
13.274000 11.433000 0.591000
13.138000 11.481000 1.154000
13.302000 11.446000 0.304000
13.167000 11.479000 0.854000
12.980000 11.513000 1.433000
13.249000 11.436000 0.001000
13.153000 11.494000 0.573000
12.987000 11.514000 1.131000
13.139000 11.470000 0.286000
13.007000 11.505000 0.832000
12.843000 11.559000 1.411000
13.130000 11.501000 -0.015000
12.995000 11.524000 0.553000
12.853000 11.563000 1.108000
13.028000 11.539000 0.268000
12.873000 11.552000 0.811000
12.699000 11.596000 1.386000
12.997000 11.551000 -0.032000
12.875000 11.582000 0.533000
12.744000 11.632000 1.088000
12.911000 11.604000 0.249000
12.758000 11.616000 0.790000
12.586000 11.660000 1.363000
12.874000 11.607000 -0.050000
12.758000 11.643000 0.513000
12.613000 11.678000 1.065000
12.783000 11.654000 0.230000
12.645000 11.679000 0.769000
12.287000 11.549000 1.321000
12.727000 11.643000 -0.068000
12.630000 11.695000 0.492000
12.506000 11.747000 1.042000
12.658000 11.706000 0.210000
12.527000 11.736000 0.747000
12.074000 11.511000 1.286000
12.626000 11.718000 -0.088000
12.492000 11.733000 0.470000
12.361000 11.778000 1.017000
12.518000 11.746000 0.188000
12.399000 11.785000 0.724000
11.928000 11.534000 1.259000
12.517000 11.784000 -0.108000
12.365000 11.780000 0.447000
12.233000 11.822000 0.992000
12.394000 11.796000 0.167000
12.256000 11.814000 0.699000
11.715000 11.491000 1.223000
12.386000 11.830000 -0.129000
12.254000 11.842000 0.425000
12.125000 11.884000 0.968000
12.263000 11.837000 0.145000
12.140000 11.868000 0.675000
11.392000 11.332000 1.176000
12.225000 11.843000 -0.150000
12.131000 11.890000 0.401000
11.723000 11.655000 0.920000
12.068000 11.817000 0.121000
11.930000 11.830000 0.645000
11.327000 11.426000 1.155000
12.088000 11.878000 -0.171000
11.177000 11.110000 0.350000
11.892000 11.988000 0.916000
11.190000 11.112000 0.091000
11.915000 11.981000 0.625000
10.772000 11.021000 1.083000
11.980000 11.942000 -0.195000
10.906000 10.995000 0.322000
10.778000 11.018000 0.814000
10.910000 10.987000 0.068000
10.784000 10.994000 0.546000
10.654000 11.052000 1.056000
10.883000 11.002000 -0.200000
10.785000 11.025000 0.298000
10.672000 11.062000 0.787000
10.802000 11.033000 0.045000
10.692000 11.054000 0.522000
10.545000 11.090000 1.029000
10.770000 11.042000 -0.222000
10.685000 11.076000 0.274000
10.566000 11.103000 0.761000
10.697000 11.079000 0.021000
10.578000 11.088000 0.496000
10.439000 11.130000 1.000000
10.666000 11.092000 -0.246000
10.573000 11.113000 0.248000
10.456000 11.138000 0.734000
10.579000 11.109000 -0.002000
10.478000 11.134000 0.470000
10.369000 11.206000 0.975000
10.558000 11.133000 -0.269000
10.471000 11.158000 0.223000
10.405000 11.236000 0.709000
10.478000 11.157000 -0.028000
10.399000 11.202000 0.444000
10.481000 11.482000 0.967000
10.470000 11.194000 -0.294000
10.484000 11.324000 0.199000
10.532000 11.527000 0.696000
10.532000 11.369000 -0.054000
10.543000 11.511000 0.427000
10.604000 11.772000 0.956000
10.596000 11.490000 -0.326000
10.569000 11.571000 0.176000
10.641000 11.802000 0.681000
10.649000 11.652000 -0.082000
10.638000 11.770000 0.405000
10.724000 12.063000 0.944000
10.712000 11.775000 -0.360000
10.706000 11.881000 0.149000
10.759000 12.093000 0.662000
10.751000 11.927000 -0.113000
10.769000 12.074000 0.384000
10.826000 12.338000 0.930000
10.848000 12.088000 -0.397000
10.814000 12.162000 0.122000
10.848000 12.352000 0.641000
10.871000 12.222000 -0.145000
10.878000 12.359000 0.359000
46.766998 53.993999 3.902000
10.934000 12.353000 -0.434000
10.850000 12.365000 0.093000
41.825001 48.244999 2.370000
0.000000 0.000000 0.000000
41.800999 48.106998 1.265000
0.000000 0.000000 0.000000
23.690001 27.128000 -1.018000
36.916000 42.629002 0.204000
41.540001 48.535999 2.238000
0.000000 0.000000 0.000000
41.604000 48.500999 1.143000
46.054001 54.526001 3.609000
23.356001 27.104000 -1.082000
0.000000 0.000000 0.000000
41.131001 48.664001 2.100000
26.753000 31.297001 -0.610000
0.000000 0.000000 0.000000
40.779999 48.884998 3.079000
22.673000 26.670000 -1.130000
0.000000 0.000000 0.000000
40.840000 48.922001 1.966000
26.462999 31.360001 -0.693000
0.000000 0.000000 0.000000
40.507000 49.147999 2.941000
22.084000 26.320000 -1.181000
0.000000 0.000000 0.000000
40.528000 49.146000 1.822000
25.764999 30.930000 -0.767000
0.000000 0.000000 0.000000
40.151001 49.299999 2.797000
21.759001 26.274000 -1.244000
0.000000 0.000000 0.000000
40.223999 49.362999 1.678000
25.334000 30.799000 -0.847000
0.000000 0.000000 0.000000
39.820999 49.466999 2.641000
21.291000 26.042000 -1.300000
29.739000 36.581001 -0.331000
39.889000 49.530998 1.533000
24.034000 29.586000 -0.893000
0.000000 0.000000 0.000000
39.558998 49.701000 2.493000
20.855000 25.837000 -1.362000
0.000000 0.000000 0.000000
39.557999 49.688999 1.376000
23.438000 29.207001 -0.964000
0.000000 0.000000 0.000000
39.287998 49.910000 2.342000
20.261000 25.419001 -1.407000
27.870001 35.111000 -0.527000
39.275002 49.882999 1.222000
22.819000 28.781000 -1.035000
0.000000 0.000000 0.000000
38.949001 50.016998 2.177000
19.851000 25.214001 -1.465000
27.326000 34.827000 -0.625000
38.958000 50.021999 1.067000
22.414000 28.608000 -1.110000
0.000000 0.000000 0.000000
38.694000 50.202999 2.016000
19.462000 25.024000 -1.526000
0.000000 0.000000 0.000000
38.688000 50.203999 0.902000
21.920000 28.301001 -1.182000
0.000000 0.000000 0.000000
38.464001 50.408001 1.857000
18.952999 24.662001 -1.574000
25.471001 33.195999 -0.803000
38.426998 50.372002 0.739000
21.434000 27.990999 -1.256000
0.000000 0.000000 0.000000
38.200001 50.547001 1.684000
18.500000 24.353001 -1.625000
0.000000 0.000000 0.000000
38.160999 50.512001 0.574000
20.841999 27.518000 -1.317000
0.000000 0.000000 0.000000
37.979000 50.716000 1.515000
18.090000 24.087000 -1.682000
23.591999 31.400000 -0.960000
0.000000 0.000000 0.000000
20.233000 26.996000 -1.377000
0.000000 0.000000 0.000000
37.763000 50.868999 1.345000
17.711000 23.844999 -1.736000
22.840000 30.701000 -1.038000
0.000000 0.000000 0.000000
19.711000 26.573000 -1.442000
0.000000 0.000000 0.000000
37.584000 51.042000 1.164000
17.229000 23.444000 -1.779000
22.237000 30.174999 -1.117000
0.000000 0.000000 0.000000
19.236000 26.190001 -1.503000
0.000000 0.000000 0.000000
37.221001 50.936001 0.982000
16.833000 23.143999 -1.831000
21.650999 29.646999 -1.200000
0.000000 0.000000 0.000000
18.708000 25.709999 -1.559000
0.000000 0.000000 0.000000
0.000000 0.000000 0.000000
16.412001 22.789000 -1.875000
20.914000 28.882999 -1.266000
0.000000 0.000000 0.000000
18.308001 25.388000 -1.627000
0.000000 0.000000 0.000000
0.000000 0.000000 0.000000
16.108999 22.580000 -1.931000
20.361000 28.344999 -1.338000
0.000000 0.000000 0.000000
17.839001 24.945999 -1.681000
0.000000 0.000000 0.000000
0.000000 0.000000 0.000000
15.799000 22.347000 -1.987000
19.775000 27.738001 -1.408000
0.000000 0.000000 0.000000
17.406000 24.534000 -1.737000
0.000000 0.000000 0.000000
0.000000 0.000000 0.000000
15.506000 22.115000 -2.040000
19.346001 27.320000 -1.481000
0.000000 0.000000 0.000000
16.962000 24.084999 -1.790000
21.895000 30.860001 -1.166000
0.000000 0.000000 0.000000
15.235000 21.900000 -2.094000
18.813000 26.732000 -1.544000
0.000000 0.000000 0.000000
16.556000 23.666000 -1.841000
21.211000 30.052000 -1.242000
0.000000 0.000000 0.000000
14.951000 21.650000 -2.148000
18.330000 26.191999 -1.609000
25.285000 35.856998 -0.862000
16.183001 23.270000 -1.893000
20.639000 29.368999 -1.321000
0.000000 0.000000 0.000000
14.714000 21.445999 -2.202000
17.799999 25.556999 -1.661000
0.000000 0.000000 0.000000
15.836000 22.895000 -1.947000
20.115000 28.733000 -1.401000
0.000000 0.000000 0.000000
14.439000 21.166000 -2.249000
17.385000 25.063999 -1.720000
0.000000 0.000000 0.000000
15.565000 22.605000 -2.003000
19.587000 28.062000 -1.470000
0.000000 0.000000 0.000000
14.179000 20.893000 -2.297000
16.989000 24.572001 -1.777000
0.000000 0.000000 0.000000
15.280000 22.275000 -2.055000
19.002001 27.285000 -1.530000
0.000000 0.000000 0.000000
13.920000 20.599001 -2.339000
16.627001 24.112000 -1.835000
21.469000 30.711000 -1.199000
15.030000 21.978001 -2.112000
18.504999 26.610001 -1.592000
0.000000 0.000000 0.000000
13.653000 20.275999 -2.377000
16.296000 23.671000 -1.890000
20.833000 29.806000 -1.274000
14.782000 21.660999 -2.161000
18.063000 25.989000 -1.654000
0.000000 0.000000 0.000000
13.362000 19.896999 -2.410000
15.863000 23.063000 -1.928000
20.243999 28.945999 -1.346000
14.542000 21.339001 -2.209000
17.649000 25.388000 -1.712000
0.000000 0.000000 0.000000
13.090000 19.524000 -2.438000
15.633000 22.729000 -1.988000
19.785999 28.250999 -1.424000
14.341000 21.055000 -2.262000
17.226000 24.754999 -1.763000
22.840000 32.375999 -1.054000
12.843000 19.174000 -2.467000
15.414000 22.392000 -2.044000
19.218000 27.378000 -1.482000
14.105000 20.700001 -2.302000
16.865999 24.194000 -1.816000
21.867001 30.898001 -1.125000
12.565000 18.759001 -2.488000
15.152000 21.978001 -2.090000
18.820999 26.733999 -1.548000
13.874000 20.334000 -2.340000
16.575001 23.712999 -1.871000
21.216999 29.861000 -1.198000
12.348000 18.417000 -2.513000
14.908000 21.570000 -2.135000
18.413000 26.055000 -1.609000
13.608000 19.903999 -2.370000
16.183001 23.073999 -1.908000
20.764999 29.087999 -1.276000
12.125000 18.049999 -2.534000
14.704000 21.205999 -2.181000
17.992001 25.346001 -1.661000
13.359000 19.482000 -2.394000
15.936000 22.625999 -1.959000
20.329000 28.323000 -1.349000
11.934000 17.718000 -2.559000
14.522000 20.857000 -2.226000
17.622000 24.695999 -1.712000
13.113000 19.052000 -2.416000
15.707000 22.191999 -2.006000
19.896000 27.554001 -1.415000
11.771000 17.410999 -2.583000
14.397000 20.577000 -2.277000
17.306999 24.111000 -1.763000
12.915000 18.676001 -2.441000
15.466000 21.729000 -2.047000
19.364000 26.639999 -1.467000
11.575000 17.046000 -2.596000
14.174000 20.146999 -2.307000
16.917999 23.415001 -1.800000
12.714000 18.287001 -2.464000
15.189000 21.202999 -2.080000
19.066999 26.038000 -1.531000
11.401000 16.701000 -2.610000
13.968000 19.729000 -2.336000
16.650000 22.881001 -1.845000
12.523000 17.902000 -2.482000
15.032000 20.839001 -2.124000
18.688000 25.320999 -1.582000
11.237000 16.357000 -2.623000
13.781000 19.327000 -2.364000
16.459000 22.441000 -1.895000
12.375000 17.570000 -2.505000
14.920000 20.528000 -2.170000
18.275999 24.558001 -1.624000
11.087000 16.028000 -2.635000
13.530000 18.830999 -2.377000
16.115000 21.791000 -1.921000
12.217000 17.212999 -2.524000
14.785000 20.174000 -2.210000
17.983000 23.948000 -1.672000
10.943000 15.700000 -2.644000
13.379000 18.468000 -2.402000
15.935000 21.358999 -1.962000
12.067000 16.864000 -2.539000
14.663000 19.834000 -2.248000
17.643000 23.277000 -1.709000
10.845000 15.429000 -2.662000
13.190000 18.047001 -2.418000
15.715000 20.865999 -1.995000
11.925000 16.521999 -2.553000
14.495000 19.427000 -2.276000
17.386000 22.714001 -1.749000
10.700000 15.087000 -2.664000
13.035000 17.670000 -2.436000
15.550000 20.445999 -2.030000
11.787000 16.176001 -2.564000
14.300000 18.979000 -2.296000
17.247999 22.302000 -1.798000
10.608000 14.817000 -2.676000
12.914000 17.333000 -2.456000
15.356000 19.986000 -2.057000
11.645000 15.825000 -2.570000
14.126000 18.558001 -2.314000
16.974001 21.716999 -1.828000
10.521000 14.545000 -2.687000
12.764000 16.955000 -2.469000
15.075000 19.412001 -2.068000
11.540000 15.521000 -2.582000
13.915000 18.087999 -2.323000
16.820999 21.288000 -1.867000
10.440000 14.281000 -2.695000
12.655000 16.631001 -2.485000
14.942000 19.030001 -2.098000
11.430000 15.206000 -2.590000
13.765000 17.695999 -2.340000
16.516001 20.666000 -1.883000
10.354000 14.007000 -2.699000
12.548000 16.308001 -2.499000
14.841000 18.688999 -2.127000
11.304000 14.871000 -2.592000
13.610000 17.299999 -2.351000
16.205000 20.042000 -1.898000
10.298000 13.770000 -2.711000
12.454000 15.998000 -2.513000
14.784000 18.402000 -2.159000
11.265000 14.648000 -2.609000
13.492000 16.952000 -2.367000
16.084999 19.660000 -1.930000
10.221000 13.506000 -2.713000
12.310000 15.627000 -2.514000
14.485000 17.813999 -2.156000
11.178000 14.360000 -2.616000
13.229000 16.422001 -2.354000
10.277000 12.409000 -1.259000
10.137000 13.231000 -2.711000
12.205000 15.307000 -2.521000
14.256000 17.320999 -2.157000
11.122000 14.114000 -2.626000
13.313000 16.325001 -2.400000
10.293000 12.275000 -1.289000
10.105000 13.023000 -2.722000
12.097000 14.982000 -2.524000
10.297000 12.355000 -1.582000
11.041000 13.835000 -2.627000
13.273000 16.073999 -2.421000
10.335000 12.172000 -1.319000
10.061000 12.801000 -2.727000
12.120000 14.821000 -2.553000
10.336000 12.246000 -1.611000
10.985000 13.589000 -2.634000
13.140000 15.709000 -2.424000
10.371000 12.059000 -1.347000
10.025000 12.586000 -2.731000
12.056000 14.554000 -2.561000
10.382000 12.143000 -1.640000
10.933000 13.349000 -2.640000
13.022000 15.369000 -2.427000
10.403000 11.939000 -1.374000
9.984000 12.367000 -2.735000
12.005000 14.300000 -2.571000
10.410000 12.017000 -1.664000
10.890000 13.119000 -2.644000
13.016000 15.161000 -2.449000
10.452000 11.840000 -1.402000
9.958000 12.168000 -2.739000
11.900000 13.988000 -2.567000
10.462000 11.918000 -1.692000
10.846000 12.890000 -2.649000
10.471000 12.034000 -1.986000
10.488000 11.723000 -1.426000
9.924000 11.958000 -2.739000
11.844000 13.736000 -2.571000
8.094000 9.098000 -1.323000
10.802000 12.663000 -2.651000
8.072000 9.153000 -1.544000
8.165000 9.003000 -1.125000
9.902000 11.765000 -2.743000
8.056000 9.214000 -1.758000
8.156000 9.044000 -1.345000
10.441000 12.070000 -2.572000
7.981000 8.927000 -1.537000
8.216000 8.938000 -1.146000
9.886000 11.580000 -2.746000
8.080000 9.114000 -1.774000
8.206000 8.975000 -1.366000
10.474000 11.939000 -2.592000
8.022000 8.849000 -1.555000
8.282000 8.887000 -1.167000
9.881000 11.407000 -2.750000
7.979000 8.876000 -1.760000
10.738000 11.583000 -1.803000
8.068000 9.067000 -2.003000
8.142000 8.857000 -1.588000
10.560000 11.174000 -1.505000
9.851000 11.209000 -2.748000
8.116000 8.900000 -1.797000
10.645000 11.323000 -1.799000
8.109000 8.982000 -2.018000
8.253000 8.851000 -1.618000
10.674000 11.139000 -1.535000
9.849000 11.044000 -2.752000
8.173000 8.835000 -1.817000
10.629000 11.147000 -1.810000
8.155000 8.903000 -2.035000
10.602000 11.211000 -2.088000
10.784000 11.097000 -1.564000
8.238000 9.100000 -2.303000
8.275000 8.817000 -1.845000
10.760000 11.127000 -1.843000
8.235000 8.861000 -2.059000
10.684000 11.137000 -2.114000
10.895000 11.053000 -1.593000
8.171000 8.893000 -2.287000
10.857000 11.402000 -2.427000
10.863000 11.074000 -1.870000
8.323000 8.824000 -2.084000
10.814000 11.110000 -2.147000
11.012000 11.014000 -1.622000
8.236000 8.831000 -2.306000
10.865000 11.244000 -2.436000
10.972000 11.025000 -1.899000
10.676000 11.153000 -2.676000
10.918000 11.057000 -2.175000
11.592000 11.429000 -1.718000
9.852000 10.404000 -2.758000
10.977000 11.195000 -2.465000
11.235000 11.129000 -1.954000
10.671000 10.983000 -2.678000
11.047000 11.025000 -2.208000
11.741000 11.410000 -1.751000
9.852000 10.249000 -2.758000
11.093000 11.147000 -2.495000
11.342000 11.071000 -1.979000
10.680000 10.829000 -2.681000
11.433000 11.244000 -2.290000
12.239000 11.724000 -1.835000
9.845000 10.086000 -2.755000
11.218000 11.106000 -2.527000
11.891000 11.439000 -2.083000
10.677000 10.664000 -2.681000
11.443000 11.089000 -2.297000
12.359000 11.668000 -1.861000
9.844000 9.931000 -2.752000
11.375000 11.094000 -2.564000
12.305000 11.665000 -2.162000
10.682000 10.509000 -2.683000
12.113000 11.566000 -2.437000
12.478000 11.607000 -1.888000
9.876000 9.812000 -2.758000
11.534000 11.083000 -2.602000
12.459000 11.638000 -2.194000
10.690000 10.358000 -2.683000
12.376000 11.642000 -2.492000
12.778000 11.714000 -1.941000
9.887000 9.670000 -2.759000
11.552000 10.933000 -2.607000
12.597000 11.594000 -2.224000
10.684000 10.195000 -2.680000
12.486000 11.572000 -2.517000
12.895000 11.648000 -1.965000
9.902000 9.536000 -2.758000
11.540000 10.757000 -2.604000
13.737000 12.456000 -2.430000
10.689000 10.045000 -2.680000
12.538000 11.446000 -2.530000
12.599000 11.213000 -1.926000
9.901000 9.388000 -2.753000
11.556000 10.610000 -2.607000
13.617000 12.164000 -2.412000
10.717000 9.916000 -2.683000
12.525000 11.262000 -2.527000
13.087000 11.476000 -2.006000
9.922000 9.262000 -2.755000
11.561000 10.453000 -2.607000
13.652000 12.013000 -2.421000
10.728000 9.776000 -2.683000
12.504000 11.075000 -2.523000
10.210000 8.819000 -1.567000
9.950000 9.142000 -2.756000
11.573000 10.305000 -2.607000
13.634000 11.817000 -2.419000
10.736000 9.632000 -2.682000
12.525000 10.926000 -2.528000
10.249000 8.722000 -1.576000
9.972000 9.020000 -2.756000
11.577000 10.151000 -2.605000
10.229000 8.733000 -1.816000
10.744000 9.489000 -2.678000
10.210000 8.771000 -2.059000
10.199000 8.549000 -1.570000
9.978000 8.883000 -2.752000
11.583000 10.001000 -2.604000
10.212000 8.587000 -1.813000
10.762000 9.359000 -2.678000
10.246000 8.668000 -2.065000
10.301000 8.505000 -1.588000
10.007000 8.768000 -2.752000
10.264000 8.725000 -2.304000
10.272000 8.505000 -1.824000
10.777000 9.225000 -2.677000
10.219000 8.513000 -2.058000
10.316000 8.389000 -1.591000
10.035000 8.655000 -2.752000
11.628000 9.733000 -2.606000
10.254000 8.362000 -1.820000
10.317000 8.693000 -2.556000
10.310000 8.456000 -2.073000
10.467000 8.382000 -1.615000
10.057000 8.535000 -2.751000
10.302000 8.488000 -2.305000
9.441000 7.582000 -1.675000
10.826000 8.979000 -2.676000
12.589000 10.168000 -2.529000
9.432000 7.439000 -1.456000
10.083000 8.422000 -2.749000
10.437000 8.465000 -2.330000
9.495000 7.508000 -1.683000
10.831000 8.842000 -2.671000
9.500000 7.553000 -1.906000
9.485000 7.366000 -1.463000
10.105000 8.305000 -2.747000
10.632000 8.489000 -2.368000
9.505000 7.400000 -1.683000
10.849000 8.717000 -2.667000
9.490000 7.428000 -1.900000
9.574000 7.320000 -1.477000
10.123000 8.187000 -2.743000
9.531000 7.490000 -2.118000
9.563000 7.330000 -1.691000
10.766000 8.514000 -2.640000
9.544000 7.355000 -1.907000
9.699000 7.302000 -1.495000
10.152000 8.078000 -2.741000
9.598000 7.424000 -2.127000
9.684000 7.307000 -1.710000
9.599000 7.469000 -2.347000
9.637000 7.310000 -1.921000
14.958000 11.088000 -2.303000
10.180000 7.970000 -2.740000
9.800000 7.461000 -2.167000
13.733000 10.201000 -2.421000
9.677000 7.409000 -2.358000
12.684000 9.469000 -2.523000
14.962000 10.917000 -2.301000
9.669000 7.447000 -2.593000
11.746000 8.801000 -2.590000
13.746000 10.052000 -2.419000
10.959000 8.257000 -2.662000
12.696000 9.329000 -2.520000
15.006000 10.779000 -2.304000
10.230000 7.751000 -2.733000
11.782000 8.685000 -2.590000
13.761000 9.902000 -2.416000
10.984000 8.142000 -2.660000
12.730000 9.206000 -2.520000
15.005000 10.610000 -2.301000
10.277000 7.660000 -2.735000
11.797000 8.557000 -2.585000
13.788000 9.766000 -2.415000
11.009000 8.028000 -2.656000
12.742000 9.066000 -2.515000
14.659000 10.200000 -2.243000
10.301000 7.550000 -2.731000
11.849000 8.457000 -2.589000
13.813000 9.629000 -2.414000
11.046000 7.924000 -2.656000
12.767000 8.939000 -2.513000
14.721000 10.081000 -2.248000
10.330000 7.447000 -2.728000
11.874000 8.336000 -2.586000
13.843000 9.493000 -2.413000
11.078000 7.816000 -2.654000
12.793000 8.813000 -2.511000
15.001000 10.111000 -2.286000
10.361000 7.347000 -2.726000
11.897000 8.218000 -2.582000
13.867000 9.357000 -2.411000
11.118000 7.716000 -2.654000
12.826000 8.691000 -2.509000
15.111000 10.020000 -2.298000
10.420000 7.265000 -2.730000
11.937000 8.111000 -2.582000
13.898000 9.228000 -2.409000
11.143000 7.606000 -2.650000
12.845000 8.564000 -2.505000
14.331000 9.350000 -2.174000
10.438000 7.156000 -2.724000
11.971000 7.999000 -2.580000
13.921000 9.092000 -2.406000
11.166000 7.494000 -2.645000
12.884000 8.449000 -2.504000
15.164000 9.734000 -2.294000
10.469000 7.057000 -2.720000
11.988000 7.878000 -2.574000
13.947000 8.960000 -2.403000
11.205000 7.396000 -2.644000
12.909000 8.325000 -2.501000
14.982000 9.459000 -2.260000
10.507000 6.963000 -2.718000
12.024000 7.771000 -2.572000
13.979000 8.834000 -2.401000
11.237000 7.293000 -2.641000
12.917000 8.193000 -2.493000
14.920000 9.266000 -2.244000
10.529000 6.860000 -2.713000
12.059000 7.663000 -2.570000
14.015000 8.709000 -2.399000
11.272000 7.192000 -2.638000
12.962000 8.085000 -2.493000
15.018000 9.173000 -2.251000
10.570000 6.769000 -2.712000
12.099000 7.559000 -2.568000
14.053000 8.587000 -2.397000
11.310000 7.094000 -2.636000
12.992000 7.967000 -2.490000
15.177000 9.115000 -2.268000
10.595000 6.669000 -2.706000
12.114000 7.441000 -2.562000
14.066000 8.452000 -2.391000
11.342000 6.993000 -2.633000
13.051000 7.869000 -2.492000
15.315000 9.045000 -2.281000
10.636000 6.578000 -2.705000
12.164000 7.343000 -2.562000
14.100000 8.328000 -2.388000
11.380000 6.895000 -2.630000
13.073000 7.748000 -2.486000
15.351000 8.914000 -2.278000
10.672000 6.487000 -2.702000
12.205000 7.242000 -2.560000
14.149000 8.216000 -2.387000
11.422000 6.801000 -2.629000
13.118000 7.641000 -2.485000
15.388000 8.782000 -2.276000
10.714000 6.398000 -2.700000
12.229000 7.131000 -2.554000
14.175000 8.091000 -2.383000
11.459000 6.704000 -2.626000
13.149000 7.527000 -2.481000
15.430000 8.656000 -2.274000
10.750000 6.306000 -2.698000
12.272000 7.031000 -2.553000
14.192000 7.960000 -2.376000
11.490000 6.605000 -2.622000
13.186000 7.417000 -2.477000
15.471000 8.530000 -2.271000
10.781000 6.213000 -2.693000
12.311000 6.930000 -2.550000
14.217000 7.836000 -2.371000
11.519000 6.504000 -2.617000
13.221000 7.306000 -2.474000
15.506000 8.401000 -2.267000
10.824000 6.126000 -2.691000
12.349000 6.829000 -2.547000
14.283000 7.735000 -2.373000
11.559000 6.411000 -2.615000
13.257000 7.198000 -2.471000
15.550000 8.277000 -2.265000
10.862000 6.036000 -2.689000
12.399000 6.734000 -2.546000
14.326000 7.621000 -2.370000
11.580000 6.307000 -2.608000
13.306000 7.095000 -2.469000
15.595000 8.155000 -2.263000
10.891000 5.943000 -2.684000
12.424000 6.627000 -2.541000
14.344000 7.494000 -2.363000
11.631000 6.220000 -2.608000
13.340000 6.985000 -2.465000
15.636000 8.031000 -2.259000
10.936000 5.858000 -2.682000
12.479000 6.536000 -2.540000
14.389000 7.383000 -2.361000
11.663000 6.123000 -2.604000
13.372000 6.876000 -2.461000
15.674000 7.905000 -2.255000
10.969000 5.767000 -2.679000
12.500000 6.427000 -2.534000
14.424000 7.267000 -2.356000
11.714000 6.037000 -2.603000
13.398000 6.763000 -2.454000
15.704000 7.777000 -2.250000
10.999000 5.676000 -2.674000
12.550000 6.334000 -2.533000
14.468000 7.155000 -2.354000
11.738000 5.937000 -2.597000
13.447000 6.662000 -2.453000
15.741000 7.652000 -2.246000
11.038000 5.589000 -2.670000
12.590000 6.236000 -2.529000
14.519000 7.049000 -2.352000
11.774000 5.843000 -2.593000
13.504000 6.567000 -2.453000
15.804000 7.540000 -2.245000
11.071000 5.499000 -2.667000
12.636000 6.141000 -2.528000
14.558000 6.935000 -2.348000
11.808000 5.749000 -2.589000
13.548000 6.464000 -2.450000
15.842000 7.418000 -2.241000
11.120000 5.418000 -2.666000
12.661000 6.037000 -2.522000
14.600000 6.824000 -2.345000
11.852000 5.660000 -2.587000
13.580000 6.356000 -2.445000
15.876000 7.293000 -2.235000
11.144000 5.325000 -2.660000
12.716000 5.947000 -2.521000
14.643000 6.714000 -2.341000
11.895000 5.571000 -2.585000
13.627000 6.256000 -2.443000
15.921000 7.174000 -2.233000
11.197000 5.246000 -2.661000
12.753000 5.849000 -2.517000
14.685000 6.604000 -2.337000
11.934000 5.480000 -2.582000
13.667000 6.153000 -2.439000
15.945000 7.046000 -2.226000
11.223000 5.154000 -2.655000
12.791000 5.751000 -2.514000
14.733000 6.496000 -2.335000
11.968000 5.387000 -2.578000
13.705000 6.049000 -2.435000
15.968000 6.919000 -2.219000
11.265000 5.070000 -2.652000
12.834000 5.656000 -2.511000
14.770000 6.383000 -2.330000
12.013000 5.300000 -2.576000
13.744000 5.946000 -2.432000
16.041000 6.812000 -2.219000
11.292000 4.979000 -2.647000
12.859000 5.554000 -2.505000
14.820000 6.278000 -2.328000
12.045000 5.206000 -2.571000
13.805000 5.852000 -2.431000
16.038000 6.675000 -2.209000
11.335000 4.896000 -2.645000
12.899000 5.457000 -2.502000
14.858000 6.167000 -2.324000
12.073000 5.111000 -2.566000
13.829000 5.743000 -2.425000
16.048000 6.544000 -2.200000
11.365000 4.808000 -2.640000
12.933000 5.359000 -2.497000
14.914000 6.063000 -2.322000
12.107000 5.020000 -2.562000
13.873000 5.642000 -2.422000
16.101000 6.430000 -2.198000
11.404000 4.723000 -2.638000
12.972000 5.264000 -2.494000
14.958000 5.956000 -2.318000
12.144000 4.929000 -2.558000
13.924000 5.544000 -2.420000
16.104000 6.298000 -2.188000
11.432000 4.634000 -2.633000
13.006000 5.166000 -2.490000
14.999000 5.846000 -2.315000
12.183000 4.839000 -2.556000
13.956000 5.440000 -2.415000
16.149000 6.183000 -2.184000
11.474000 4.551000 -2.631000
13.050000 5.073000 -2.487000
15.041000 5.737000 -2.311000
12.221000 4.750000 -2.553000
13.999000 5.339000 -2.412000
16.243000 6.085000 -2.188000
11.507000 4.465000 -2.627000
13.083000 4.976000 -2.482000
15.105000 5.637000 -2.310000
12.262000 4.662000 -2.550000
14.060000 5.245000 -2.412000
16.309000 5.977000 -2.186000
11.548000 4.382000 -2.626000
13.122000 4.880000 -2.480000
15.168000 5.536000 -2.310000
12.297000 4.572000 -2.547000
14.090000 5.141000 -2.407000
16.347000 5.859000 -2.182000
11.579000 4.295000 -2.621000
13.138000 4.777000 -2.472000
15.205000 5.426000 -2.306000
12.327000 4.479000 -2.542000
14.113000 5.033000 -2.401000
16.396000 5.745000 -2.179000
11.624000 4.213000 -2.620000
13.180000 4.684000 -2.470000
15.255000 5.321000 -2.303000
12.371000 4.392000 -2.541000
14.153000 4.932000 -2.397000
16.445999 5.631000 -2.175000
11.652000 4.125000 -2.616000
13.216000 4.588000 -2.466000
15.299000 5.213000 -2.300000
12.409000 4.303000 -2.538000
14.194000 4.832000 -2.394000
16.406000 5.487000 -2.160000
11.689000 4.041000 -2.614000
13.254000 4.493000 -2.463000
15.339000 5.104000 -2.296000
12.442000 4.211000 -2.534000
14.211000 4.723000 -2.388000
16.457001 5.375000 -2.158000
11.718000 3.954000 -2.610000
13.295000 4.400000 -2.460000
15.390000 5.000000 -2.294000
12.482000 4.124000 -2.532000
14.248000 4.622000 -2.384000
16.503000 5.260000 -2.154000
11.758000 3.870000 -2.608000
13.322000 4.301000 -2.456000
15.420000 4.888000 -2.289000
12.507000 4.031000 -2.528000
14.281000 4.520000 -2.379000
16.538000 5.143000 -2.150000
11.804000 3.789000 -2.608000
13.370000 4.210000 -2.454000
15.472000 4.783000 -2.287000
12.550000 3.943000 -2.526000
14.327000 4.421000 -2.378000
16.625000 5.041000 -2.152000
11.828000 3.701000 -2.603000
13.403000 4.114000 -2.451000
15.478000 4.665000 -2.279000
12.585000 3.854000 -2.523000
14.355000 4.316000 -2.373000
16.573999 4.898000 -2.136000
11.866000 3.616000 -2.602000
13.439000 4.019000 -2.448000
15.528000 4.561000 -2.277000
12.620000 3.765000 -2.521000
14.391000 4.216000 -2.370000
16.530001 4.759000 -2.122000
11.886000 3.527000 -2.596000
13.470000 3.922000 -2.444000
15.531000 4.440000 -2.268000
12.654000 3.674000 -2.518000
14.453000 4.122000 -2.371000
16.434000 4.607000 -2.101000
11.913000 3.441000 -2.593000
13.515000 3.831000 -2.443000
15.558000 4.330000 -2.263000
12.689000 3.584000 -2.516000
14.474000 4.015000 -2.365000
16.389000 4.469000 -2.086000
11.960000 3.359000 -2.593000
13.534000 3.731000 -2.438000
15.622000 4.229000 -2.264000
12.728000 3.497000 -2.515000
14.513000 3.916000 -2.363000
16.346001 4.335000 -2.073000
11.984000 3.271000 -2.589000
13.574000 3.637000 -2.436000
15.641000 4.115000 -2.258000
12.750000 3.402000 -2.510000
14.552000 3.815000 -2.361000
16.271000 4.194000 -2.055000
12.015000 3.186000 -2.587000
13.610000 3.542000 -2.434000
15.664000 4.003000 -2.253000
12.791000 3.315000 -2.509000
14.578000 3.711000 -2.356000
16.245001 4.065000 -2.044000
12.039000 3.098000 -2.583000
13.641000 3.446000 -2.431000
15.646000 3.882000 -2.242000
12.815000 3.223000 -2.506000
14.612000 3.610000 -2.353000
16.177999 3.929000 -2.028000
12.067000 3.012000 -2.581000
13.677000 3.351000 -2.429000
15.656000 3.767000 -2.235000
12.850000 3.133000 -2.504000
14.637000 3.506000 -2.349000
16.254000 3.827000 -2.030000
12.103000 2.928000 -2.580000
13.708000 3.255000 -2.426000
15.699000 3.661000 -2.234000
12.886000 3.044000 -2.503000
14.675000 3.405000 -2.347000
16.426001 3.746000 -2.044000
12.134000 2.841000 -2.579000
13.733000 3.158000 -2.423000
15.821000 3.573000 -2.243000
12.905000 2.951000 -2.499000
14.719000 3.306000 -2.346000
16.396000 3.620000 -2.032000
12.153000 2.754000 -2.575000
13.764000 3.061000 -2.420000
15.784000 3.447000 -2.230000
12.937000 2.859000 -2.497000
14.744000 3.202000 -2.342000
16.413000 3.505000 -2.028000
12.187000 2.669000 -2.574000
13.800000 2.967000 -2.419000
15.838000 3.344000 -2.231000
12.963000 2.768000 -2.495000
14.775000 3.100000 -2.340000
16.507000 3.404000 -2.032000
12.209000 2.580000 -2.571000
13.830000 2.871000 -2.417000
15.918000 3.245000 -2.235000
12.991000 2.678000 -2.493000
14.795000 2.996000 -2.336000
16.691000 3.322000 -2.048000
12.230000 2.493000 -2.568000
13.854000 2.773000 -2.414000
15.885000 3.121000 -2.223000
13.024000 2.587000 -2.492000
14.831000 2.894000 -2.335000
16.754000 3.214000 -2.049000
12.262000 2.408000 -2.568000
13.888000 2.678000 -2.413000
15.939000 3.017000 -2.224000
13.042000 2.494000 -2.488000
14.866000 2.792000 -2.334000
16.754999 3.093000 -2.043000
12.257000 2.315000 -2.560000
13.908000 2.580000 -2.410000
15.949000 2.905000 -2.219000
13.070000 2.403000 -2.487000
14.896000 2.690000 -2.332000
16.757999 2.974000 -2.037000
12.305000 2.233000 -2.563000
13.920000 2.480000 -2.406000
16.042000 2.805000 -2.225000
13.098000 2.311000 -2.486000
14.914000 2.585000 -2.328000
16.686001 2.843000 -2.022000
12.326000 2.145000 -2.561000
13.970000 2.388000 -2.408000
16.077000 2.697000 -2.224000
13.115000 2.218000 -2.483000
14.936000 2.481000 -2.326000
16.645000 2.717000 -2.011000
12.353000 2.058000 -2.560000
14.007000 2.292000 -2.408000
16.041000 2.577000 -2.213000
13.154000 2.129000 -2.484000
14.968000 2.380000 -2.325000
16.627001 2.597000 -2.003000
12.377000 1.971000 -2.559000
14.006000 2.190000 -2.402000
16.084999 2.468000 -2.213000
13.137000 2.031000 -2.475000
15.003000 2.278000 -2.324000
16.575001 2.473000 -1.992000
12.397000 1.884000 -2.558000
14.037000 2.095000 -2.402000
16.098000 2.357000 -2.210000
13.180000 1.942000 -2.478000
15.020000 2.173000 -2.322000
16.608000 2.359000 -1.991000
12.412000 1.796000 -2.555000
14.054000 1.996000 -2.399000
16.049000 2.237000 -2.198000
13.195000 1.849000 -2.475000
15.062000 2.072000 -2.323000
16.657000 2.250000 -1.992000
12.429000 1.707000 -2.554000
14.088000 1.900000 -2.400000
16.059000 2.124000 -2.194000
13.233000 1.759000 -2.477000
15.086000 1.968000 -2.322000
16.643000 2.132000 -1.985000
12.448000 1.620000 -2.552000
14.118000 1.803000 -2.400000
16.112000 2.018000 -2.197000
13.228000 1.663000 -2.471000
15.097000 1.862000 -2.319000
16.658001 2.017000 -1.983000
12.465000 1.532000 -2.551000
14.121000 1.703000 -2.396000
16.141001 1.908000 -2.196000
13.258000 1.572000 -2.473000
15.129000 1.760000 -2.319000
16.674000 1.904000 -1.980000
12.491000 1.444000 -2.552000
14.141000 1.605000 -2.395000
16.110001 1.792000 -2.187000
13.256000 1.477000 -2.468000
15.118000 1.652000 -2.313000
16.705999 1.792000 -1.980000
12.519000 1.358000 -2.553000
14.139000 1.505000 -2.391000
16.117001 1.681000 -2.184000
13.279000 1.384000 -2.468000
15.157000 1.550000 -2.315000
16.733999 1.678000 -1.980000
12.533000 1.269000 -2.552000
14.168000 1.408000 -2.392000
16.143000 1.571000 -2.184000
13.332000 1.295000 -2.474000
15.196000 1.448000 -2.317000
16.750999 1.565000 -1.978000
12.544000 1.180000 -2.551000
14.209000 1.311000 -2.395000
16.132999 1.458000 -2.179000
