# This PCD file was generated using the MATLAB® pcwrite function
# from Computer Vision Toolbox®.
# .PCD v.7 - Point Cloud Data file format
VERSION .7
FIELDS x y z
SIZE 4 4 4
TYPE F F F
COUNT 1 1 1
WIDTH 1629
HEIGHT 1
VIEWPOINT 0 0 0 1 0 0 0
POINTS 1629
DATA ascii
19.325001 8.310000 0.190000
19.320000 8.398000 0.858000
19.311001 8.505000 1.573000
19.389000 8.389000 -0.162000
19.358000 8.466000 0.533000
19.358999 8.565000 1.222000
19.420000 8.508000 0.195000
19.409000 8.596000 0.867000
19.374001 8.695000 1.585000
19.462000 8.578000 -0.161000
19.443001 8.662000 0.540000
19.351999 8.721000 1.228000
19.490999 8.697000 0.199000
19.350000 8.730000 0.871000
19.238001 8.795000 1.583000
19.455999 8.734000 -0.158000
19.302999 8.759000 0.540000
19.438000 8.922000 1.239000
19.332001 8.785000 0.199000
19.451000 8.935000 0.880000
19.275000 8.973000 1.593000
19.540001 8.932000 -0.157000
19.313999 8.924000 0.545000
19.225000 8.986000 1.233000
19.408001 8.981000 0.204000
19.257999 9.009000 0.876000
19.089001 9.049000 1.585000
19.346001 9.003000 -0.155000
19.111000 8.989000 0.543000
19.038000 9.059000 1.227000
19.218000 9.052000 0.204000
19.044001 9.069000 0.871000
18.879000 9.111000 1.575000
19.143000 9.068000 -0.152000
18.910000 9.054000 0.539000
18.896000 9.153000 1.222000
19.010000 9.114000 0.203000
18.861000 9.141000 0.867000
18.702000 9.186000 1.567000
18.987000 9.153000 -0.150000
18.737000 9.130000 0.538000
18.698999 9.218000 1.216000
18.832001 9.188000 0.204000
18.719999 9.233000 0.864000
18.555000 9.276000 1.561000
18.805000 9.225000 -0.149000
18.544001 9.194000 0.535000
18.490999 9.275000 1.207000
18.687000 9.275000 0.203000
18.521000 9.295000 0.859000
18.357000 9.337000 1.551000
18.608000 9.286000 -0.147000
18.337999 9.250000 0.531000
18.363001 9.372000 1.203000
18.490000 9.337000 0.202000
18.322001 9.353000 0.853000
18.164000 9.399000 1.540000
18.438999 9.360000 -0.145000
18.231001 9.354000 0.530000
18.158001 9.427000 1.195000
18.302999 9.401000 0.201000
18.190001 9.446000 0.850000
18.025000 9.488000 1.533000
18.282000 9.439000 -0.146000
18.052999 9.420000 0.527000
17.983000 9.494000 1.187000
18.159000 9.485000 0.200000
18.004999 9.509000 0.844000
17.834999 9.548000 1.523000
18.084999 9.495000 -0.144000
17.864000 9.481000 0.523000
17.847000 9.583000 1.181000
17.955999 9.537000 0.197000
17.812000 9.565000 0.837000
17.648001 9.607000 1.512000
17.934999 9.573000 -0.145000
17.773001 9.589000 0.521000
17.646999 9.635000 1.172000
17.834000 9.631000 0.196000
17.673000 9.650000 0.833000
17.517000 9.695000 1.504000
17.759001 9.637000 -0.146000
17.591000 9.648000 0.516000
17.464001 9.692000 1.163000
17.641001 9.684000 0.193000
17.490000 9.707000 0.826000
17.318001 9.745000 1.492000
17.580999 9.698000 -0.146000
17.466000 9.739000 0.512000
17.339001 9.782000 1.156000
17.452999 9.739000 0.189000
17.353001 9.789000 0.820000
17.174000 9.822000 1.484000
17.459000 9.788000 -0.148000
17.285000 9.795000 0.507000
17.150000 9.834000 1.147000
17.320000 9.821000 0.186000
17.167999 9.844000 0.812000
16.997999 9.881000 1.471000
17.246000 9.826000 -0.150000
17.163000 9.883000 0.503000
17.007000 9.910000 1.139000
17.124001 9.867000 0.182000
17.032000 9.923000 0.806000
16.855000 9.957000 1.462000
17.128000 9.916000 -0.152000
16.983000 9.938000 0.496000
16.818001 9.959000 1.127000
17.003000 9.955000 0.177000
16.837000 9.967000 0.797000
16.708000 10.028000 1.452000
16.924000 9.953000 -0.154000
16.856001 10.020000 0.491000
16.725000 10.062000 1.122000
16.820999 10.005000 0.173000
16.721001 10.057000 0.790000
16.507999 10.067000 1.436000
16.820999 10.051000 -0.158000
16.676001 10.070000 0.483000
16.521999 10.097000 1.109000
16.701000 10.090000 0.168000
16.540001 10.105000 0.781000
16.365000 10.138000 1.426000
16.638000 10.098000 -0.161000
16.516001 10.133000 0.476000
16.395000 10.178000 1.100000
16.493999 10.123000 0.161000
16.365000 10.154000 0.771000
16.218000 10.205000 1.414000
16.500999 10.171000 -0.165000
16.343000 10.183000 0.468000
16.205999 10.219000 1.087000
16.393000 10.218000 0.157000
16.232000 10.231000 0.763000
16.045000 10.255000 1.399000
16.313000 10.212000 -0.170000
16.221001 10.263000 0.461000
16.087999 10.302000 1.078000
16.177000 10.239000 0.150000
16.098000 10.303000 0.754000
15.922000 10.334000 1.389000
16.181000 10.287000 -0.175000
16.032000 10.302000 0.452000
15.880000 10.326000 1.062000
16.063999 10.325000 0.142000
15.922000 10.347000 0.742000
15.749000 10.379000 1.374000
15.997000 10.325000 -0.180000
15.921000 10.386000 0.444000
15.759000 10.405000 1.053000
15.901000 10.376000 0.135000
15.782000 10.414000 0.732000
15.125000 10.122000 1.318000
15.877000 10.405000 -0.187000
15.258000 10.105000 0.420000
15.129000 10.141000 1.008000
15.252000 10.104000 0.123000
15.129000 10.134000 0.698000
15.205000 10.330000 1.324000
15.218000 10.125000 -0.187000
15.216000 10.232000 0.414000
15.254000 10.381000 1.013000
15.283000 10.278000 0.116000
15.279000 10.389000 0.700000
15.333000 10.574000 1.333000
15.348000 10.365000 -0.197000
15.260000 10.415000 0.408000
15.346000 10.601000 1.016000
15.303000 10.447000 0.109000
15.353000 10.598000 0.698000
15.202000 10.643000 1.319000
15.450000 10.591000 -0.209000
15.315000 10.608000 0.403000
15.162000 10.630000 0.999000
15.335000 10.624000 0.101000
15.173000 10.629000 0.684000
15.026000 10.677000 1.301000
15.275000 10.628000 -0.215000
15.183000 10.675000 0.392000
15.045000 10.706000 0.987000
15.173000 10.669000 0.090000
15.073000 10.715000 0.673000
14.910000 10.751000 1.287000
15.152000 10.698000 -0.224000
15.017000 10.714000 0.380000
14.896000 10.756000 0.971000
15.032000 10.726000 0.080000
14.901000 10.751000 0.658000
14.745000 10.791000 1.269000
15.013000 10.757000 -0.235000
14.892000 10.781000 0.368000
14.743000 10.802000 0.955000
14.912000 10.797000 0.069000
14.766000 10.809000 0.645000
14.613000 10.851000 1.252000
14.850000 10.797000 -0.243000
14.761000 10.844000 0.355000
14.622000 10.872000 0.941000
14.744000 10.832000 0.057000
14.652000 10.881000 0.631000
14.501000 10.924000 1.237000
14.731000 10.866000 -0.254000
14.603000 10.883000 0.341000
14.500000 10.937000 0.925000
14.617000 10.895000 0.045000
14.522000 10.943000 0.616000
14.358000 10.975000 1.219000
14.610000 10.934000 -0.266000
14.472000 10.941000 0.328000
14.333000 10.967000 0.907000
14.501000 10.964000 0.033000
14.348000 10.967000 0.599000
14.217000 11.023000 1.200000
14.441000 10.964000 -0.276000
14.346000 11.004000 0.313000
14.217000 11.036000 0.891000
14.363000 11.018000 0.018000
14.246000 11.045000 0.585000
14.094000 11.084000 1.182000
14.328000 11.035000 -0.289000
14.219000 11.062000 0.298000
14.105000 11.105000 0.874000
14.216000 11.061000 0.005000
14.119000 11.104000 0.568000
13.967000 11.142000 1.163000
14.201000 11.093000 -0.302000
14.073000 11.104000 0.283000
13.943000 11.132000 0.854000
14.090000 11.118000 -0.008000
13.958000 11.132000 0.550000
13.818000 11.179000 1.141000
14.055000 11.137000 -0.315000
13.945000 11.161000 0.266000
13.811000 11.184000 0.835000
13.966000 11.176000 -0.023000
13.830000 11.185000 0.532000
13.688000 11.228000 1.121000
13.914000 11.181000 -0.329000
13.829000 11.224000 0.250000
13.691000 11.242000 0.816000
13.838000 11.231000 -0.039000
13.715000 11.249000 0.514000
13.569000 11.289000 1.100000
13.800000 11.245000 -0.344000
13.697000 11.271000 0.232000
13.576000 11.303000 0.797000
13.695000 11.270000 -0.055000
13.602000 11.311000 0.496000
13.454000 11.347000 1.080000
13.676000 11.303000 -0.360000
13.542000 11.301000 0.214000
13.443000 11.349000 0.776000
13.568000 11.320000 -0.072000
13.451000 11.341000 0.476000
13.329000 11.397000 1.058000
13.526000 11.334000 -0.375000
13.436000 11.367000 0.196000
13.322000 11.401000 0.755000
13.464000 11.391000 -0.090000
13.341000 11.404000 0.456000
13.181000 11.426000 1.033000
13.404000 11.387000 -0.392000
13.330000 11.432000 0.177000
13.203000 11.453000 0.733000
13.338000 11.440000 -0.108000
13.210000 11.446000 0.435000
13.061000 11.476000 1.010000
13.293000 11.451000 -0.410000
13.172000 11.453000 0.156000
13.088000 11.509000 0.711000
13.212000 11.487000 -0.127000
13.104000 11.508000 0.414000
12.963000 11.543000 0.988000
13.173000 11.503000 -0.428000
13.059000 11.508000 0.136000
12.975000 11.563000 0.689000
13.067000 11.518000 -0.147000
12.995000 11.568000 0.393000
12.853000 11.600000 0.964000
13.057000 11.559000 -0.446000
12.910000 11.531000 0.114000
12.862000 11.615000 0.665000
12.940000 11.559000 -0.167000
12.871000 11.611000 0.370000
12.740000 11.651000 0.939000
12.930000 11.603000 -0.466000
12.781000 11.570000 0.092000
12.738000 11.658000 0.641000
12.846000 11.630000 -0.187000
12.756000 11.659000 0.346000
12.616000 11.688000 0.913000
12.818000 11.657000 -0.487000
12.632000 11.587000 0.070000
12.613000 11.696000 0.615000
12.723000 11.674000 -0.210000
12.617000 11.686000 0.322000
12.514000 11.748000 0.887000
12.674000 11.681000 -0.506000
12.496000 11.613000 0.047000
12.490000 11.731000 0.589000
12.622000 11.735000 -0.233000
12.504000 11.733000 0.297000
12.395000 11.787000 0.860000
12.566000 11.738000 -0.528000
12.377000 11.656000 0.023000
12.370000 11.771000 0.563000
12.514000 11.788000 -0.255000
12.387000 11.774000 0.272000
12.282000 11.829000 0.832000
12.454000 11.788000 -0.551000
12.273000 11.708000 0.000000
12.264000 11.820000 0.536000
12.398000 11.833000 -0.280000
12.288000 11.831000 0.246000
12.165000 11.866000 0.803000
12.324000 11.818000 -0.572000
12.102000 11.694000 -0.025000
12.159000 11.867000 0.509000
12.260000 11.853000 -0.304000
12.168000 11.865000 0.219000
12.052000 11.903000 0.774000
12.222000 11.875000 -0.598000
12.063000 11.807000 -0.052000
12.048000 11.909000 0.481000
12.115000 11.864000 -0.327000
12.027000 11.875000 0.192000
11.184000 11.182000 0.697000
11.271000 11.093000 -0.579000
11.207000 11.108000 -0.073000
11.951000 11.959000 0.452000
11.303000 11.211000 -0.333000
11.972000 11.970000 0.164000
10.858000 10.992000 0.655000
10.976000 10.943000 -0.591000
10.940000 10.980000 -0.097000
10.855000 10.996000 0.387000
10.941000 10.989000 -0.350000
10.853000 10.985000 0.124000
10.768000 11.032000 0.627000
10.908000 11.015000 -0.618000
10.840000 11.017000 -0.123000
10.768000 11.041000 0.359000
10.829000 11.013000 -0.374000
10.768000 11.032000 0.097000
10.679000 11.070000 0.598000
10.803000 11.046000 -0.642000
10.749000 11.058000 -0.150000
10.673000 11.075000 0.331000
10.732000 11.051000 -0.401000
10.678000 11.073000 0.069000
10.589000 11.108000 0.568000
10.711000 11.090000 -0.667000
10.651000 11.089000 -0.177000
10.590000 11.117000 0.302000
10.653000 11.104000 -0.428000
10.578000 11.100000 0.041000
10.497000 11.139000 0.538000
10.612000 11.125000 -0.694000
10.559000 11.127000 -0.205000
10.484000 11.136000 0.272000
10.568000 11.149000 -0.455000
10.504000 11.151000 0.012000
10.425000 11.187000 0.508000
10.514000 11.158000 -0.720000
10.467000 11.160000 -0.233000
10.416000 11.190000 0.242000
10.485000 11.194000 -0.484000
10.470000 11.244000 -0.017000
10.505000 11.400000 0.484000
10.598000 11.384000 -0.759000
10.532000 11.360000 -0.266000
10.541000 11.450000 0.216000
10.593000 11.443000 -0.522000
10.569000 11.479000 -0.048000
10.570000 11.596000 0.458000
10.686000 11.616000 -0.803000
10.612000 11.579000 -0.302000
10.626000 11.671000 0.186000
10.690000 11.682000 -0.561000
10.657000 11.703000 -0.080000
10.693000 11.855000 0.432000
10.608000 11.668000 -0.834000
10.748000 11.859000 -0.340000
10.745000 11.928000 0.156000
10.833000 11.975000 -0.607000
10.759000 11.945000 -0.116000
10.798000 12.098000 0.404000
10.455000 11.633000 -0.858000
10.822000 12.073000 -0.378000
10.800000 12.115000 0.123000
10.897000 12.179000 -0.648000
10.857000 12.182000 -0.153000
10.868000 12.300000 0.373000
10.424000 11.733000 -0.896000
10.932000 12.329000 -0.421000
10.907000 12.361000 0.088000
10.678000 12.066000 -0.673000
10.908000 12.367000 -0.190000
42.087002 48.097000 1.311000
10.392000 11.828000 -0.933000
23.804001 27.129000 -1.001000
37.282001 42.675999 0.178000
10.371000 11.847000 -0.693000
27.705999 31.732000 -0.584000
41.847000 48.286999 1.162000
10.379000 11.943000 -0.972000
23.285999 26.811001 -1.063000
0.000000 0.000000 0.000000
10.347000 11.945000 -0.732000
26.853001 31.058001 -0.662000
41.566002 48.403000 1.012000
10.343000 12.031000 -1.012000
22.731001 26.438000 -1.127000
0.000000 0.000000 0.000000
10.325000 12.041000 -0.770000
25.809999 30.136999 -0.731000
0.000000 0.000000 0.000000
10.315000 12.125000 -1.052000
22.216000 26.090000 -1.188000
30.924000 36.402000 -0.186000
10.291000 12.122000 -0.811000
25.462000 30.007999 -0.822000
0.000000 0.000000 0.000000
10.297000 12.228000 -1.093000
21.688999 25.712000 -1.245000
0.000000 0.000000 0.000000
10.263000 12.206000 -0.851000
24.558001 29.198999 -0.890000
0.000000 0.000000 0.000000
10.265000 12.312000 -1.137000
10.238000 12.248000 -0.631000
0.000000 0.000000 0.000000
10.251000 12.306000 -0.894000
23.823000 28.568001 -0.958000
0.000000 0.000000 0.000000
16.518999 20.006001 -1.904000
20.650999 24.920000 -1.360000
28.100000 33.908001 -0.500000
18.218000 22.068001 -1.671000
23.412001 28.306999 -1.041000
0.000000 0.000000 0.000000
16.215000 19.820999 -1.943000
20.253000 24.646000 -1.420000
27.698000 33.674000 -0.606000
17.893000 21.862000 -1.721000
22.839001 27.826000 -1.113000
36.139000 44.125999 0.049000
15.873000 19.580000 -1.979000
19.834000 24.330999 -1.481000
26.224001 32.111000 -0.685000
17.552999 21.624001 -1.768000
22.379000 27.466000 -1.186000
0.000000 0.000000 0.000000
15.570000 19.370001 -2.016000
19.297001 23.851000 -1.528000
25.524000 31.459999 -0.776000
17.202999 21.363001 -1.815000
21.801001 26.943001 -1.254000
0.000000 0.000000 0.000000
15.260000 19.139999 -2.050000
18.820999 23.427000 -1.575000
24.547001 30.438000 -0.854000
16.858999 21.091000 -1.859000
21.372999 26.583000 -1.325000
29.667000 36.875999 -0.338000
14.968000 18.923000 -2.087000
18.485001 23.165001 -1.636000
24.145000 30.113001 -0.949000
16.482000 20.763000 -1.896000
20.643000 25.827000 -1.373000
0.000000 0.000000 0.000000
14.841000 18.899000 -2.145000
18.128000 22.857000 -1.690000
23.406000 29.340000 -1.025000
16.073000 20.381001 -1.930000
20.257000 25.483999 -1.444000
0.000000 0.000000 0.000000
14.696000 18.843000 -2.198000
17.722000 22.472000 -1.735000
22.610001 28.473000 -1.093000
15.813000 20.171000 -1.977000
19.775999 25.000000 -1.502000
0.000000 0.000000 0.000000
14.478000 18.683001 -2.243000
17.371000 22.139999 -1.787000
22.207001 28.080000 -1.178000
15.448000 19.813999 -2.007000
19.298000 24.503000 -1.556000
25.482000 32.199001 -0.747000
14.294000 18.554001 -2.289000
17.014000 21.785999 -1.834000
21.695000 27.525999 -1.252000
15.194000 19.586000 -2.053000
18.841999 24.017000 -1.611000
24.608999 31.181000 -0.838000
14.015000 18.288000 -2.317000
16.688000 21.454000 -1.879000
21.091000 26.837999 -1.314000
15.006000 19.427999 -2.103000
18.441000 23.579000 -1.665000
24.132000 30.639000 -0.933000
13.784000 18.073000 -2.353000
16.309000 21.041000 -1.919000
20.556999 26.219999 -1.380000
14.870000 19.325001 -2.159000
17.988001 23.061001 -1.709000
23.355000 29.697001 -1.010000
13.572000 17.868000 -2.389000
15.979000 20.672001 -1.959000
19.931999 25.466000 -1.432000
14.705000 19.173000 -2.211000
17.656000 22.681999 -1.765000
22.480000 28.611000 -1.079000
13.307000 17.580999 -2.412000
15.730000 20.396000 -2.004000
19.565001 25.023001 -1.496000
14.518000 18.978001 -2.256000
17.297001 22.252001 -1.811000
22.184999 28.243999 -1.168000
13.111000 17.372999 -2.447000
15.462000 20.082001 -2.048000
19.122999 24.469999 -1.554000
14.203000 18.601000 -2.278000
16.937000 21.805000 -1.853000
21.608000 27.500000 -1.235000
12.894000 17.124001 -2.474000
15.137000 19.679001 -2.079000
18.732000 23.966999 -1.610000
13.995000 18.353001 -2.316000
16.631001 21.414000 -1.900000
21.131001 26.867001 -1.308000
12.673000 16.856001 -2.496000
14.975000 19.474001 -2.127000
18.368000 23.483000 -1.662000
13.760000 18.056999 -2.345000
16.337999 21.028000 -1.943000
20.569000 26.112000 -1.366000
12.465000 16.596001 -2.520000
14.812000 19.256001 -2.177000
17.964001 22.933001 -1.710000
13.545000 17.775000 -2.373000
15.995000 20.563999 -1.975000
20.100000 25.461000 -1.424000
12.246000 16.309000 -2.537000
14.650000 19.027000 -2.222000
17.660000 22.500999 -1.760000
13.349000 17.504000 -2.405000
15.743000 20.205999 -2.018000
19.674000 24.853001 -1.483000
12.051000 16.041000 -2.555000
14.408000 18.683001 -2.250000
17.350000 22.048000 -1.805000
13.135000 17.201000 -2.428000
15.335000 19.634001 -2.034000
19.233999 24.215000 -1.534000
11.828000 15.726000 -2.567000
14.184000 18.351999 -2.281000
17.011000 21.549000 -1.844000
12.926000 16.893000 -2.448000
15.123000 19.305000 -2.071000
18.788000 23.561001 -1.577000
11.664000 15.479000 -2.586000
13.928000 17.966999 -2.301000
16.665001 21.030001 -1.879000
12.768000 16.643999 -2.477000
14.955000 19.023001 -2.114000
18.475000 23.066000 -1.629000
11.466000 15.177000 -2.593000
13.758000 17.684999 -2.331000
16.375000 20.572001 -1.914000
12.588000 16.354000 -2.496000
14.802000 18.750000 -2.154000
18.159000 22.558001 -1.677000
11.314000 14.930000 -2.610000
13.550000 17.348000 -2.355000
15.952000 19.943001 -1.929000
12.431000 16.086000 -2.516000
14.693000 18.521999 -2.196000
17.884001 22.093000 -1.722000
11.158000 14.667000 -2.622000
13.385000 17.056000 -2.380000
15.797000 19.642000 -1.975000
12.224000 15.747000 -2.526000
14.368000 18.016001 -2.206000
17.555000 21.554001 -1.759000
11.049000 14.458000 -2.641000
13.211000 16.745001 -2.400000
15.612000 19.295000 -2.010000
12.003000 15.382000 -2.526000
14.167000 17.660999 -2.229000
17.302000 21.104000 -1.801000
10.918000 14.213000 -2.654000
13.083000 16.483999 -2.428000
15.344000 18.840000 -2.032000
11.914000 15.180000 -2.552000
14.011000 17.356001 -2.255000
17.007000 20.599001 -1.831000
10.796000 13.973000 -2.664000
12.819000 16.049999 -2.425000
15.231000 18.570999 -2.074000
11.782000 14.917000 -2.568000
13.838000 17.023001 -2.278000
10.253000 12.326000 -1.140000
10.678000 13.733000 -2.673000
12.802000 15.917000 -2.465000
14.818000 17.933001 -2.068000
11.647000 14.646000 -2.578000
13.666000 16.688000 -2.296000
10.287000 12.269000 -1.180000
10.564000 13.493000 -2.681000
12.616000 15.570000 -2.473000
10.285000 12.350000 -1.469000
11.533000 14.395000 -2.590000
13.584000 16.458000 -2.325000
10.317000 12.202000 -1.217000
10.467000 13.268000 -2.689000
12.549000 15.365000 -2.500000
10.312000 12.280000 -1.507000
11.407000 14.128000 -2.599000
13.529000 16.257000 -2.360000
10.339000 12.122000 -1.252000
10.370000 13.042000 -2.696000
12.440000 15.104000 -2.515000
10.340000 12.204000 -1.542000
11.313000 13.893000 -2.610000
13.271000 15.810000 -2.354000
10.367000 12.045000 -1.288000
10.308000 12.854000 -2.711000
12.372000 14.890000 -2.538000
10.369000 12.128000 -1.577000
11.226000 13.666000 -2.622000
12.993000 15.336000 -2.340000
10.396000 11.964000 -1.321000
10.227000 12.639000 -2.716000
12.261000 14.622000 -2.548000
10.395000 12.044000 -1.611000
11.138000 13.434000 -2.632000
12.553000 14.677000 -2.296000
10.425000 11.881000 -1.354000
10.168000 12.448000 -2.725000
12.181000 14.387000 -2.562000
10.433000 11.969000 -1.644000
11.039000 13.186000 -2.634000
12.544000 14.524000 -2.327000
10.463000 11.805000 -1.388000
10.093000 12.236000 -2.730000
12.049000 14.090000 -2.565000
10.467000 11.887000 -1.676000
10.956000 12.958000 -2.640000
10.479000 12.009000 -1.968000
10.494000 11.717000 -1.418000
10.035000 12.041000 -2.735000
11.935000 13.814000 -2.568000
8.078000 9.078000 -1.313000
10.892000 12.748000 -2.649000
12.689000 14.390000 -2.413000
8.160000 9.015000 -1.122000
9.973000 11.842000 -2.738000
10.504000 12.028000 -2.281000
8.167000 9.080000 -1.346000
10.477000 12.132000 -2.568000
8.016000 8.994000 -1.542000
8.198000 8.957000 -1.147000
9.919000 11.649000 -2.742000
8.106000 9.182000 -1.777000
8.153000 8.965000 -1.361000
10.459000 11.978000 -2.583000
7.984000 8.859000 -1.551000
8.251000 8.914000 -1.172000
9.884000 11.477000 -2.748000
8.055000 9.021000 -1.781000
8.199000 8.915000 -1.386000
8.052000 9.118000 -2.003000
8.041000 8.821000 -1.578000
8.335000 8.903000 -1.201000
9.845000 11.301000 -2.752000
8.000000 8.857000 -1.782000
8.303000 8.923000 -1.419000
8.078000 9.040000 -2.022000
8.153000 8.841000 -1.614000
10.581000 11.171000 -1.546000
9.821000 11.141000 -2.760000
8.120000 8.885000 -1.823000
10.636000 11.297000 -1.836000
8.120000 8.980000 -2.044000
8.221000 8.810000 -1.641000
10.670000 11.131000 -1.578000
9.780000 10.960000 -2.760000
8.155000 8.818000 -1.842000
10.627000 11.153000 -1.853000
8.143000 8.897000 -2.061000
8.402000 8.895000 -1.690000
10.769000 11.099000 -1.611000
8.244000 9.124000 -2.335000
8.264000 8.826000 -1.877000
10.729000 11.123000 -1.887000
8.200000 8.848000 -2.084000
10.666000 11.154000 -2.160000
10.871000 11.068000 -1.645000
8.231000 8.996000 -2.340000
10.914000 11.511000 -2.494000
10.832000 11.093000 -1.921000
8.273000 8.817000 -2.112000
10.760000 11.113000 -2.193000
10.969000 11.029000 -1.675000
8.199000 8.846000 -2.337000
10.812000 11.260000 -2.482000
10.932000 11.055000 -1.954000
10.522000 11.070000 -2.697000
10.882000 11.098000 -2.232000
11.047000 10.969000 -1.703000
8.268000 8.805000 -2.363000
10.918000 11.226000 -2.517000
11.028000 11.010000 -1.984000
10.484000 10.888000 -2.695000
11.050000 11.125000 -2.277000
11.326000 11.103000 -1.762000
9.684000 10.177000 -2.774000
11.013000 11.177000 -2.550000
11.314000 11.152000 -2.049000
10.458000 10.719000 -2.696000
11.442000 11.371000 -2.369000
12.136000 11.743000 -1.901000
9.675000 10.032000 -2.776000
11.096000 11.113000 -2.577000
11.358000 11.050000 -2.070000
10.440000 10.559000 -2.699000
11.350000 11.133000 -2.361000
12.265000 11.714000 -1.935000
9.653000 9.875000 -2.773000
11.164000 11.034000 -2.601000
12.088000 11.605000 -2.213000
10.445000 10.422000 -2.705000
11.436000 11.068000 -2.387000
12.359000 11.649000 -1.964000
9.665000 9.751000 -2.780000
11.251000 10.971000 -2.629000
12.294000 11.647000 -2.262000
10.430000 10.266000 -2.705000
12.085000 11.540000 -2.531000
12.477000 11.604000 -1.994000
9.646000 9.597000 -2.776000
11.235000 10.806000 -2.630000
12.367000 11.559000 -2.286000
10.419000 10.114000 -2.707000
12.176000 11.470000 -2.559000
12.683000 11.638000 -2.038000
9.642000 9.460000 -2.776000
11.234000 10.657000 -2.635000
12.613000 11.630000 -2.339000
10.421000 9.976000 -2.709000
12.169000 11.306000 -2.563000
12.834000 11.618000 -2.074000
9.647000 9.331000 -2.779000
11.232000 10.509000 -2.640000
13.193000 12.000000 -2.455000
10.413000 9.830000 -2.709000
12.143000 11.128000 -2.564000
12.728000 11.364000 -2.065000
9.662000 9.213000 -2.782000
11.222000 10.353000 -2.640000
13.184000 11.826000 -2.462000
10.403000 9.682000 -2.709000
12.141000 10.971000 -2.569000
14.570000 12.831000 -2.373000
9.655000 9.075000 -2.778000
11.197000 10.185000 -2.636000
13.050000 11.543000 -2.442000
10.410000 9.550000 -2.710000
12.133000 10.810000 -2.570000
10.125000 8.792000 -1.655000
9.665000 8.952000 -2.780000
11.203000 10.047000 -2.640000
10.151000 8.854000 -1.904000
10.419000 9.422000 -2.712000
12.120000 10.648000 -2.571000
10.041000 8.598000 -1.646000
9.679000 8.834000 -2.781000
11.213000 9.911000 -2.642000
10.099000 8.684000 -1.899000
10.417000 9.284000 -2.711000
10.134000 8.777000 -2.152000
10.092000 8.520000 -1.659000
9.683000 8.709000 -2.779000
11.214000 9.770000 -2.643000
10.067000 8.534000 -1.895000
10.416000 9.148000 -2.708000
10.027000 8.559000 -2.130000
10.183000 8.475000 -1.679000
9.704000 8.598000 -2.782000
11.178000 9.598000 -2.635000
10.126000 8.462000 -1.908000
10.430000 9.027000 -2.710000
10.068000 8.471000 -2.139000
10.255000 8.413000 -1.693000
9.702000 8.469000 -2.776000
10.287000 8.704000 -2.423000
10.238000 8.431000 -1.931000
10.243000 8.734000 -2.659000
12.119000 10.048000 -2.576000
14.283000 11.551000 -2.362000
9.735000 8.370000 -2.781000
11.136000 9.284000 -2.621000
13.123000 10.652000 -2.477000
10.355000 8.698000 -2.684000
12.123000 9.905000 -2.576000
9.454000 7.534000 -1.566000
9.740000 8.249000 -2.778000
10.365000 8.514000 -2.438000
9.483000 7.585000 -1.790000
10.461000 8.656000 -2.707000
12.110000 9.749000 -2.572000
9.462000 7.431000 -1.568000
9.758000 8.138000 -2.776000
11.241000 9.096000 -2.640000
9.500000 7.486000 -1.793000
10.468000 8.532000 -2.705000
9.512000 7.544000 -2.019000
9.507000 7.358000 -1.577000
9.785000 8.037000 -2.778000
11.246000 8.964000 -2.638000
9.518000 7.391000 -1.797000
10.492000 8.422000 -2.706000
9.514000 7.433000 -2.017000
9.570000 7.297000 -1.588000
9.796000 7.922000 -2.775000
9.553000 7.499000 -2.238000
9.569000 7.320000 -1.805000
10.503000 8.303000 -2.703000
9.560000 7.358000 -2.025000
9.706000 7.291000 -1.611000
9.824000 7.822000 -2.775000
9.601000 7.423000 -2.245000
9.733000 7.333000 -1.835000
9.616000 7.485000 -2.470000
9.705000 7.357000 -2.053000
14.254000 10.549000 -2.366000
9.852000 7.723000 -2.776000
9.874000 7.519000 -2.305000
13.140000 9.753000 -2.475000
9.658000 7.402000 -2.474000
12.171000 9.085000 -2.571000
14.271000 10.401000 -2.367000
9.657000 7.452000 -2.714000
11.317000 8.485000 -2.637000
13.142000 9.607000 -2.473000
10.559000 7.968000 -2.699000
12.170000 8.947000 -2.566000
14.281000 10.253000 -2.368000
9.723000 7.385000 -2.724000
11.331000 8.364000 -2.634000
13.157000 9.470000 -2.473000
10.591000 7.867000 -2.701000
12.184000 8.819000 -2.565000
14.281000 10.097000 -2.366000
9.906000 7.406000 -2.767000
11.353000 8.251000 -2.633000
13.186000 9.346000 -2.474000
10.608000 7.756000 -2.697000
12.212000 8.702000 -2.565000
14.289000 9.947000 -2.364000
9.930000 7.306000 -2.765000
11.367000 8.131000 -2.630000
13.184000 9.201000 -2.470000
10.635000 7.654000 -2.696000
12.229000 8.579000 -2.563000
14.305000 9.805000 -2.364000
9.970000 7.217000 -2.767000
11.403000 8.029000 -2.631000
13.225000 9.085000 -2.473000
10.660000 7.550000 -2.695000
12.228000 8.444000 -2.558000
14.320000 9.664000 -2.363000
10.001000 7.124000 -2.766000
11.417000 7.912000 -2.627000
13.227000 8.945000 -2.468000
10.677000 7.441000 -2.691000
12.248000 8.324000 -2.555000
14.322000 9.514000 -2.360000
10.011000 7.016000 -2.760000
11.444000 7.804000 -2.626000
13.249000 8.820000 -2.467000
10.717000 7.349000 -2.692000
12.282000 8.216000 -2.556000
14.300000 9.350000 -2.352000
10.043000 6.923000 -2.758000
11.470000 7.696000 -2.624000
13.268000 8.691000 -2.465000
10.743000 7.247000 -2.690000
12.309000 8.103000 -2.554000
14.383000 9.257000 -2.361000
10.067000 6.827000 -2.755000
11.496000 7.590000 -2.622000
13.284000 8.563000 -2.462000
10.781000 7.154000 -2.690000
12.329000 7.984000 -2.551000
14.388000 9.111000 -2.356000
10.108000 6.742000 -2.757000
11.524000 7.486000 -2.620000
13.309000 8.442000 -2.460000
10.801000 7.051000 -2.686000
12.363000 7.877000 -2.551000
14.421000 8.986000 -2.356000
10.124000 6.640000 -2.750000
11.553000 7.381000 -2.618000
13.323000 8.314000 -2.456000
10.833000 6.954000 -2.685000
12.378000 7.759000 -2.546000
14.444000 8.856000 -2.354000
10.165000 6.556000 -2.751000
11.582000 7.278000 -2.616000
13.352000 8.196000 -2.455000
10.852000 6.851000 -2.680000
12.413000 7.652000 -2.545000
14.472000 8.727000 -2.353000
10.197000 6.465000 -2.749000
11.609000 7.175000 -2.613000
13.378000 8.078000 -2.452000
10.868000 6.747000 -2.674000
12.440000 7.542000 -2.543000
14.499000 8.601000 -2.351000
10.225000 6.373000 -2.746000
11.640000 7.072000 -2.611000
13.406000 7.960000 -2.450000
10.907000 6.656000 -2.674000
12.476000 7.439000 -2.542000
14.538000 8.482000 -2.350000
10.247000 6.279000 -2.741000
11.678000 6.977000 -2.610000
13.444000 7.850000 -2.449000
10.940000 6.563000 -2.671000
12.510000 7.332000 -2.540000
14.557000 8.350000 -2.346000
10.284000 6.193000 -2.740000
11.717000 6.881000 -2.610000
13.470000 7.734000 -2.446000
10.961000 6.464000 -2.666000
12.535000 7.224000 -2.536000
14.573000 8.220000 -2.342000
10.310000 6.101000 -2.735000
11.736000 6.774000 -2.604000
13.498000 7.617000 -2.443000
10.992000 6.369000 -2.664000
12.562000 7.116000 -2.533000
14.609000 8.101000 -2.340000
10.343000 6.015000 -2.733000
11.759000 6.671000 -2.600000
13.534000 7.508000 -2.441000
11.036000 6.284000 -2.664000
12.606000 7.017000 -2.533000
14.634000 7.975000 -2.337000
10.376000 5.927000 -2.730000
11.788000 6.572000 -2.596000
13.572000 7.400000 -2.439000
11.062000 6.190000 -2.660000
12.637000 6.912000 -2.529000
14.665000 7.855000 -2.334000
10.407000 5.840000 -2.727000
11.826000 6.477000 -2.595000
13.609000 7.290000 -2.437000
11.088000 6.093000 -2.655000
12.681000 6.816000 -2.529000
14.678000 7.726000 -2.328000
10.435000 5.751000 -2.723000
11.852000 6.376000 -2.590000
13.625000 7.171000 -2.431000
11.133000 6.010000 -2.655000
12.715000 6.712000 -2.526000
14.696000 7.598000 -2.322000
10.470000 5.665000 -2.721000
11.883000 6.280000 -2.587000
13.654000 7.060000 -2.428000
11.164000 5.918000 -2.652000
12.746000 6.609000 -2.523000
14.757000 7.495000 -2.324000
10.499000 5.578000 -2.717000
11.932000 6.191000 -2.587000
13.702000 6.957000 -2.427000
11.190000 5.823000 -2.647000
12.785000 6.511000 -2.521000
14.793000 7.380000 -2.321000
10.535000 5.496000 -2.715000
11.953000 6.090000 -2.582000
13.734000 6.848000 -2.424000
11.221000 5.733000 -2.644000
12.812000 6.405000 -2.516000
14.797000 7.247000 -2.313000
10.563000 5.407000 -2.711000
11.994000 5.999000 -2.580000
13.767000 6.740000 -2.420000
11.252000 5.643000 -2.641000
12.859000 6.311000 -2.516000
14.838000 7.135000 -2.311000
10.605000 5.327000 -2.710000
12.031000 5.905000 -2.577000
13.809000 6.635000 -2.418000
11.290000 5.555000 -2.638000
12.896000 6.212000 -2.513000
14.894000 7.031000 -2.311000
10.635000 5.242000 -2.706000
12.066000 5.812000 -2.575000
13.836000 6.524000 -2.414000
11.328000 5.469000 -2.636000
12.920000 6.105000 -2.508000
14.921000 6.911000 -2.306000
10.681000 5.163000 -2.706000
12.104000 5.720000 -2.572000
13.879000 6.422000 -2.412000
11.360000 5.380000 -2.633000
12.964000 6.011000 -2.506000
14.955000 6.796000 -2.302000
10.712000 5.079000 -2.703000
12.153000 5.632000 -2.572000
13.932000 6.323000 -2.411000
11.397000 5.293000 -2.630000
13.019000 5.921000 -2.506000
15.006000 6.690000 -2.301000
10.742000 4.994000 -2.699000
12.169000 5.531000 -2.565000
13.953000 6.211000 -2.405000
11.419000 5.200000 -2.625000
13.055000 5.821000 -2.503000
15.056000 6.582000 -2.300000
10.781000 4.912000 -2.697000
12.195000 5.434000 -2.560000
14.007000 6.114000 -2.405000
11.455000 5.114000 -2.622000
13.068000 5.713000 -2.496000
15.082000 6.465000 -2.294000
10.814000 4.830000 -2.694000
12.234000 5.344000 -2.558000
14.060000 6.015000 -2.404000
11.476000 5.020000 -2.616000
13.102000 5.614000 -2.492000
15.133000 6.359000 -2.293000
10.841000 4.744000 -2.690000
12.267000 5.251000 -2.554000
14.103000 5.914000 -2.402000
11.522000 4.939000 -2.616000
13.149000 5.521000 -2.491000
15.180000 6.250000 -2.291000
10.878000 4.662000 -2.688000
12.305000 5.160000 -2.551000
14.137000 5.809000 -2.398000
11.553000 4.851000 -2.612000
13.161000 5.413000 -2.483000
15.215000 6.138000 -2.287000
10.907000 4.578000 -2.684000
12.339000 5.067000 -2.548000
14.158000 5.697000 -2.392000
11.582000 4.761000 -2.608000
13.198000 5.316000 -2.480000
15.254000 6.027000 -2.283000
10.941000 4.497000 -2.681000
12.373000 4.976000 -2.545000
14.207000 5.598000 -2.391000
11.637000 4.683000 -2.610000
13.245000 5.223000 -2.479000
15.299000 5.917000 -2.281000
10.983000 4.417000 -2.680000
12.400000 4.881000 -2.540000
14.261000 5.502000 -2.390000
11.667000 4.596000 -2.606000
13.274000 5.124000 -2.475000
15.341000 5.809000 -2.278000
11.009000 4.332000 -2.676000
12.446000 4.793000 -2.540000
14.270000 5.386000 -2.382000
11.697000 4.507000 -2.602000
13.311000 5.027000 -2.471000
15.382000 5.700000 -2.275000
11.035000 4.248000 -2.671000
12.472000 4.699000 -2.535000
14.298000 5.280000 -2.377000
11.731000 4.421000 -2.599000
13.324000 4.921000 -2.464000
15.426000 5.590000 -2.272000
11.076000 4.168000 -2.670000
12.507000 4.608000 -2.532000
14.320000 5.172000 -2.371000
11.764000 4.335000 -2.597000
13.374000 4.830000 -2.464000
15.463000 5.480000 -2.268000
11.110000 4.087000 -2.668000
12.552000 4.520000 -2.531000
14.361000 5.069000 -2.369000
11.801000 4.249000 -2.594000
13.397000 4.729000 -2.458000
15.505000 5.371000 -2.265000
11.148000 4.007000 -2.667000
12.577000 4.426000 -2.526000
14.385000 4.963000 -2.363000
11.835000 4.164000 -2.592000
13.421000 4.629000 -2.453000
15.557000 5.264000 -2.264000
11.174000 3.922000 -2.663000
12.597000 4.330000 -2.520000
14.425000 4.862000 -2.361000
11.858000 4.074000 -2.587000
13.460000 4.534000 -2.451000
15.586000 5.152000 -2.259000
11.211000 3.842000 -2.661000
12.636000 4.241000 -2.519000
14.471000 4.761000 -2.359000
11.898000 3.989000 -2.586000
13.505000 4.441000 -2.449000
15.631000 5.045000 -2.256000
11.245000 3.761000 -2.659000
12.672000 4.151000 -2.516000
14.503000 4.658000 -2.355000
11.938000 3.906000 -2.585000
13.529000 4.341000 -2.445000
15.666000 4.933000 -2.253000
11.272000 3.677000 -2.655000
12.707000 4.060000 -2.513000
14.537000 4.555000 -2.351000
11.972000 3.821000 -2.582000
13.558000 4.243000 -2.441000
15.721000 4.828000 -2.252000
11.304000 3.595000 -2.653000
12.737000 3.968000 -2.510000
14.582000 4.454000 -2.350000
12.004000 3.734000 -2.580000
13.592000 4.147000 -2.438000
15.731000 4.710000 -2.244000
11.339000 3.515000 -2.652000
12.771000 3.878000 -2.508000
14.623000 4.354000 -2.348000
12.036000 3.648000 -2.578000
13.628000 4.051000 -2.435000
15.751000 4.595000 -2.239000
11.364000 3.430000 -2.648000
12.803000 3.787000 -2.505000
14.661000 4.252000 -2.345000
12.067000 3.562000 -2.575000
13.664000 3.955000 -2.433000
15.786000 4.485000 -2.235000
11.390000 3.347000 -2.645000
12.849000 3.699000 -2.505000
14.675000 4.143000 -2.339000
12.109000 3.478000 -2.575000
13.695000 3.858000 -2.430000
15.833000 4.378000 -2.233000
11.418000 3.265000 -2.642000
12.872000 3.606000 -2.501000
14.715000 4.042000 -2.337000
12.127000 3.388000 -2.570000
13.727000 3.761000 -2.427000
15.842000 4.260000 -2.227000
11.450000 3.182000 -2.640000
12.894000 3.512000 -2.496000
14.754000 3.940000 -2.334000
12.158000 3.302000 -2.568000
13.760000 3.665000 -2.424000
15.856000 4.145000 -2.221000
11.475000 3.099000 -2.637000
12.943000 3.425000 -2.498000
14.791000 3.838000 -2.332000
12.194000 3.216000 -2.567000
13.796000 3.569000 -2.422000
15.836000 4.021000 -2.210000
11.505000 3.017000 -2.636000
12.950000 3.328000 -2.491000
14.819000 3.734000 -2.329000
12.211000 3.126000 -2.562000
13.823000 3.471000 -2.419000
15.808000 3.896000 -2.198000
11.539000 2.935000 -2.635000
12.997000 3.241000 -2.491000
14.844000 3.629000 -2.325000
12.246000 3.042000 -2.561000
13.856000 3.375000 -2.417000
15.794000 3.776000 -2.189000
11.561000 2.851000 -2.632000
13.015000 3.146000 -2.487000
14.883000 3.527000 -2.323000
12.276000 2.954000 -2.559000
13.893000 3.280000 -2.416000
15.895000 3.683000 -2.195000
11.612000 2.775000 -2.635000
13.051000 3.056000 -2.486000
14.911000 3.423000 -2.320000
12.311000 2.869000 -2.559000
13.919000 3.181000 -2.413000
16.021999 3.594000 -2.206000
11.624000 2.687000 -2.630000
13.083000 2.965000 -2.485000
14.941000 3.320000 -2.317000
12.331000 2.780000 -2.555000
13.953000 3.086000 -2.412000
16.004999 3.473000 -2.196000
11.630000 2.600000 -2.624000
13.122000 2.875000 -2.485000
14.970000 3.215000 -2.315000
12.356000 2.692000 -2.553000
13.985000 2.989000 -2.410000
16.038000 3.363000 -2.194000
11.662000 2.519000 -2.624000
13.147000 2.783000 -2.482000
14.989000 3.110000 -2.311000
12.381000 2.604000 -2.551000
14.007000 2.890000 -2.407000
16.149000 3.269000 -2.202000
11.683000 2.434000 -2.621000
13.174000 2.690000 -2.480000
15.013000 3.005000 -2.308000
12.383000 2.513000 -2.545000
14.042000 2.794000 -2.406000
16.124001 3.148000 -2.192000
11.713000 2.352000 -2.621000
13.205000 2.598000 -2.480000
15.046000 2.902000 -2.307000
12.426000 2.427000 -2.547000
14.042000 2.691000 -2.399000
16.204000 3.047000 -2.197000
11.736000 2.268000 -2.619000
13.211000 2.503000 -2.474000
15.097000 2.803000 -2.308000
12.446000 2.339000 -2.544000
14.098000 2.598000 -2.402000
16.216999 2.932000 -2.192000
11.745000 2.182000 -2.614000
13.252000 2.413000 -2.475000
15.130000 2.699000 -2.307000
12.472000 2.252000 -2.543000
14.099000 2.496000 -2.396000
16.250000 2.822000 -2.191000
11.750000 2.095000 -2.609000
13.262000 2.317000 -2.471000
15.176000 2.598000 -2.308000
12.490000 2.163000 -2.541000
14.138000 2.401000 -2.397000
16.257000 2.707000 -2.186000
11.759000 2.009000 -2.605000
13.291000 2.225000 -2.471000
15.193000 2.492000 -2.305000
12.518000 2.075000 -2.540000
14.174000 2.304000 -2.397000
16.264999 2.593000 -2.181000
11.779000 1.925000 -2.604000
13.310000 2.132000 -2.468000
15.189000 2.383000 -2.298000
12.532000 1.986000 -2.537000
14.208000 2.207000 -2.398000
16.277000 2.479000 -2.178000
11.830000 1.846000 -2.609000
13.316000 2.036000 -2.464000
15.235000 2.281000 -2.300000
12.548000 1.897000 -2.535000
14.203000 2.104000 -2.391000
16.250000 2.360000 -2.169000
11.835000 1.759000 -2.605000
13.352000 1.945000 -2.465000
15.261000 2.177000 -2.299000
12.560000 1.807000 -2.532000
14.236000 2.007000 -2.392000
16.170000 2.234000 -2.153000
11.851000 1.675000 -2.603000
13.363000 1.850000 -2.462000
15.275000 2.070000 -2.296000
12.601000 1.721000 -2.536000
14.270000 1.910000 -2.393000
16.200001 2.125000 -2.153000
11.851000 1.588000 -2.598000
13.394000 1.758000 -2.463000
15.298000 1.964000 -2.295000
12.604000 1.631000 -2.531000
14.305000 1.813000 -2.394000
16.253000 2.018000 -2.155000
11.884000 1.505000 -2.601000
13.392000 1.662000 -2.458000
15.313000 1.859000 -2.292000
12.625000 1.542000 -2.531000
14.293000 1.709000 -2.387000
16.237000 1.902000 -2.149000
11.908000 1.422000 -2.601000
13.395000 1.567000 -2.454000
15.323000 1.752000 -2.290000
12.647000 1.454000 -2.531000
14.318000 1.612000 -2.388000
16.240999 1.789000 -2.145000
11.940000 1.339000 -2.604000
13.418000 1.473000 -2.455000
15.322000 1.644000 -2.285000
12.678000 1.366000 -2.533000
14.333000 1.512000 -2.386000
16.212999 1.673000 -2.138000
11.938000 1.252000 -2.600000
13.422000 1.378000 -2.452000
15.379000 1.543000 -2.290000
12.688000 1.276000 -2.532000
14.322000 1.409000 -2.380000
16.247000 1.564000 -2.139000
11.929000 1.165000 -2.594000
13.479000 1.288000 -2.458000
15.373000 1.435000 -2.286000
12.704000 1.187000 -2.531000
14.367000 1.313000 -2.384000
16.242001 1.451000 -2.135000
11.980000 1.083000 -2.602000
13.473000 1.192000 -2.454000
15.457000 1.334000 -2.295000
12.708000 1.097000 -2.529000
14.338000 1.209000 -2.376000
16.281000 1.342000 -2.137000
11.969000 0.996000 -2.596000
13.501000 1.099000 -2.456000
15.445000 1.226000 -2.290000
12.736000 1.008000 -2.531000
14.360000 1.110000 -2.377000
16.289000 1.229000 -2.135000
12.020000 0.914000 -2.604000
13.545000 1.007000 -2.461000
15.448000 1.119000 -2.288000
12.743000 0.918000 -2.530000
14.422000 1.014000 -2.385000
16.319000 1.120000 -2.136000
12.030000 0.829000 -2.604000
13.549000 0.912000 -2.459000
15.458000 1.012000 -2.287000
12.766000 0.829000 -2.532000
14.468000 0.916000 -2.390000
16.327000 1.008000 -2.135000
12.019000 0.742000 -2.599000
13.575000 0.818000 -2.461000
15.535000 0.910000 -2.296000
12.779000 0.739000 -2.532000
14.510000 0.817000 -2.394000
16.330999 0.895000 -2.133000
12.037000 0.657000 -2.601000
13.571000 0.723000 -2.458000
15.595000 0.805000 -2.302000
12.776000 0.648000 -2.530000
14.501000 0.716000 -2.391000
16.334000 0.783000 -2.132000
12.065000 0.572000 -2.605000
13.598000 0.628000 -2.462000
15.541000 0.694000 -2.293000
12.756000 0.558000 -2.524000
14.513000 0.616000 -2.391000
16.343000 0.672000 -2.131000
12.074000 0.486000 -2.605000
13.611000 0.533000 -2.462000
15.566000 0.589000 -2.295000
12.770000 0.468000 -2.525000
14.502000 0.514000 -2.388000
16.364000 0.560000 -2.132000
12.058000 0.399000 -2.600000
13.628000 0.437000 -2.464000
15.552000 0.479000 -2.291000
12.820000 0.378000 -2.533000
14.552000 0.414000 -2.395000
16.382999 0.448000 -2.134000
12.081000 0.314000 -2.604000
13.582000 0.341000 -2.454000
15.670000 0.375000 -2.307000
12.831000 0.288000 -2.535000
14.578000 0.313000 -2.398000
16.381001 0.335000 -2.132000
12.074000 0.228000 -2.601000
13.612000 0.247000 -2.459000
15.653000 0.267000 -2.304000
12.817000 0.198000 -2.531000
14.556000 0.212000 -2.393000
16.381001 0.223000 -2.132000
12.077000 0.142000 -2.601000
13.655000 0.152000 -2.466000
15.567000 0.158000 -2.291000
12.833000 0.107000 -2.534000
14.571000 0.111000 -2.395000
16.398001 0.112000 -2.133000
12.052000 0.056000 -2.595000
13.621000 0.057000 -2.459000
15.573000 0.051000 -2.291000
12.819000 0.017000 -2.531000
14.565000 0.010000 -2.394000
16.417000 0.000000 -2.135000
12.076000 -0.028000 -2.600000
13.662000 -0.037000 -2.467000
15.598000 -0.054000 -2.295000
12.814000 -0.072000 -2.529000
14.578000 -0.090000 -2.396000
16.445000 -0.112000 -2.139000
12.088000 -0.115000 -2.603000
13.650000 -0.133000 -2.464000
15.846000 -0.165000 -2.331000
12.820000 -0.162000 -2.531000
14.561000 -0.191000 -2.394000
16.344000 -0.222000 -2.126000
12.073000 -0.200000 -2.600000
13.612000 -0.227000 -2.458000
15.547000 -0.268000 -2.288000
12.814000 -0.252000 -2.530000
14.555000 -0.292000 -2.393000
16.228001 -0.332000 -2.111000
12.092000 -0.286000 -2.605000
13.626000 -0.322000 -2.461000
15.481000 -0.373000 -2.279000
12.821000 -0.342000 -2.532000
14.548000 -0.392000 -2.392000
16.073999 -0.438000 -2.092000
12.065000 -0.371000 -2.600000
13.624000 -0.417000 -2.461000
15.499000 -0.481000 -2.282000
12.812000 -0.432000 -2.531000
14.541000 -0.492000 -2.392000
16.068001 -0.547000 -2.092000
12.031000 -0.455000 -2.593000
13.619000 -0.512000 -2.461000
15.522000 -0.588000 -2.286000
12.803000 -0.522000 -2.531000
14.543000 -0.593000 -2.394000
16.263000 -0.666000 -2.118000
12.056000 -0.541000 -2.600000
13.618000 -0.607000 -2.463000
15.508000 -0.693000 -2.285000
12.795000 -0.611000 -2.530000
14.537000 -0.693000 -2.394000
16.273001 -0.777000 -2.121000
12.030000 -0.626000 -2.596000
13.624000 -0.703000 -2.465000
15.568000 -0.804000 -2.296000
12.789000 -0.701000 -2.531000
14.561000 -0.795000 -2.400000
16.313000 -0.890000 -2.128000
12.028000 -0.711000 -2.597000
13.596000 -0.795000 -2.462000
15.670000 -0.916000 -2.313000
12.798000 -0.792000 -2.534000
14.548000 -0.896000 -2.399000
16.249001 -0.998000 -2.121000
12.009000 -0.795000 -2.595000
13.600000 -0.891000 -2.465000
15.715000 -1.027000 -2.321000
12.769000 -0.880000 -2.531000
14.536000 -0.995000 -2.399000
16.263000 -1.109000 -2.125000
12.059000 -0.884000 -2.608000
13.583000 -0.985000 -2.463000
15.579000 -1.126000 -2.303000
12.789000 -0.971000 -2.537000
14.525000 -1.095000 -2.400000
16.271999 -1.221000 -2.129000
12.043000 -0.968000 -2.607000
13.597000 -1.080000 -2.468000
15.560000 -1.231000 -2.303000
12.771000 -1.060000 -2.536000
14.499000 -1.194000 -2.398000
16.240999 -1.330000 -2.127000
12.029000 -1.053000 -2.607000
13.581000 -1.174000 -2.468000
15.546000 -1.337000 -2.304000
12.721000 -1.145000 -2.529000
14.502000 -1.295000 -2.401000
16.228001 -1.440000 -2.128000
12.018000 -1.138000 -2.608000
13.546000 -1.266000 -2.465000
15.645000 -1.454000 -2.321000
12.732000 -1.236000 -2.534000
14.481000 -1.394000 -2.401000
16.224001 -1.551000 -2.130000
12.008000 -1.222000 -2.609000
13.548000 -1.361000 -2.468000
15.535000 -1.551000 -2.307000
12.718000 -1.325000 -2.534000
14.471000 -1.494000 -2.402000
16.216000 -1.662000 -2.132000
11.988000 -1.306000 -2.608000
13.540000 -1.456000 -2.470000
15.580000 -1.663000 -2.318000
12.692000 -1.412000 -2.533000
14.485000 -1.596000 -2.408000
16.256001 -1.777000 -2.140000
11.986000 -1.392000 -2.611000
13.538000 -1.551000 -2.473000
15.516000 -1.764000 -2.311000
12.668000 -1.499000 -2.532000
14.474000 -1.696000 -2.410000
16.263000 -1.890000 -2.145000
11.965000 -1.474000 -2.610000
13.509000 -1.642000 -2.471000
15.523000 -1.872000 -2.316000
12.666000 -1.589000 -2.535000
14.441000 -1.793000 -2.408000
16.233000 -1.998000 -2.144000
11.946000 -1.558000 -2.610000
13.467000 -1.732000 -2.468000
15.508000 -1.978000 -2.318000
12.686000 -1.682000 -2.543000
14.304000 -1.876000 -2.389000
16.242001 -2.111000 -2.149000
11.941000 -1.643000 -2.613000
13.479000 -1.829000 -2.474000
15.438000 -2.077000 -2.311000
12.685000 -1.772000 -2.547000
14.421000 -1.992000 -2.413000
16.261000 -2.226000 -2.156000
11.934000 -1.728000 -2.616000
13.447000 -1.919000 -2.472000
15.473000 -2.189000 -2.320000
12.666000 -1.860000 -2.548000
14.398000 -2.091000 -2.413000
16.256001 -2.338000 -2.159000
11.923000 -1.813000 -2.618000
13.449000 -2.015000 -2.477000
15.474000 -2.297000 -2.325000
12.645000 -1.947000 -2.548000
14.366000 -2.187000 -2.412000
16.223000 -2.445000 -2.159000
11.917000 -1.898000 -2.621000
13.427000 -2.107000 -2.477000
15.418000 -2.396000 -2.321000
12.633000 -2.036000 -2.550000
14.369000 -2.288000 -2.417000
16.216999 -2.557000 -2.163000
11.896000 -1.980000 -2.622000
13.385000 -2.195000 -2.474000
15.355000 -2.494000 -2.316000
12.623000 -2.125000 -2.553000
14.284000 -2.376000 -2.408000
16.159000 -2.661000 -2.159000
11.859000 -2.060000 -2.619000
13.423000 -2.297000 -2.487000
15.346000 -2.600000 -2.320000
12.598000 -2.211000 -2.553000
14.291000 -2.478000 -2.414000
16.167999 -2.774000 -2.165000
11.851000 -2.146000 -2.623000
13.367000 -2.383000 -2.481000
15.306000 -2.701000 -2.318000
12.571000 -2.297000 -2.553000
14.284000 -2.578000 -2.418000
16.184999 -2.890000 -2.172000
11.836000 -2.229000 -2.625000
13.352000 -2.476000 -2.484000
15.291000 -2.806000 -2.321000
12.556000 -2.385000 -2.555000
14.220000 -2.668000 -2.412000
16.184000 -3.004000 -2.177000
11.822000 -2.312000 -2.627000
13.334000 -2.568000 -2.486000
15.249000 -2.906000 -2.320000
12.552000 -2.476000 -2.560000
14.215000 -2.768000 -2.417000
16.186001 -3.117000 -2.182000
11.802000 -2.396000 -2.629000
13.302000 -2.658000 -2.485000
15.177000 -3.000000 -2.314000
12.519000 -2.560000 -2.559000
14.134000 -2.853000 -2.408000
16.158001 -3.225000 -2.184000
11.779000 -2.477000 -2.630000
13.257000 -2.744000 -2.482000
15.144000 -3.100000 -2.315000
12.494000 -2.646000 -2.560000
14.132000 -2.954000 -2.413000
16.129000 -3.333000 -2.185000
11.764000 -2.561000 -2.633000
13.201000 -2.828000 -2.478000
15.147000 -3.209000 -2.321000
12.450000 -2.728000 -2.557000
14.085000 -3.045000 -2.411000
16.188000 -3.459000 -2.198000
11.739000 -2.642000 -2.633000
13.214000 -2.927000 -2.486000
15.114000 -3.310000 -2.321000
12.413000 -2.810000 -2.556000
14.069000 -3.143000 -2.415000
16.195999 -3.576000 -2.206000
11.717000 -2.724000 -2.635000
13.197000 -3.018000 -2.489000
15.101000 -3.414000 -2.325000
12.383000 -2.894000 -2.555000
13.981000 -3.224000 -2.405000
16.132999 -3.677000 -2.202000
11.693000 -2.805000 -2.636000
13.181000 -3.111000 -2.492000
15.038000 -3.508000 -2.322000
12.347000 -2.977000 -2.555000
14.015000 -3.333000 -2.417000
16.129999 -3.790000 -2.207000
11.649000 -2.882000 -2.632000
13.138000 -3.197000 -2.490000
14.984000 -3.603000 -2.319000
12.312000 -3.059000 -2.554000
13.991000 -3.429000 -2.420000
16.122000 -3.904000 -2.212000
11.634000 -2.965000 -2.636000
13.113000 -3.287000 -2.492000
14.993000 -3.713000 -2.326000
12.302000 -3.148000 -2.558000
13.959000 -3.523000 -2.420000
16.107000 -4.016000 -2.216000
11.608000 -3.045000 -2.637000
13.099000 -3.380000 -2.496000
14.981000 -3.818000 -2.331000
12.268000 -3.231000 -2.558000
13.948000 -3.622000 -2.424000
16.120001 -4.134000 -2.224000
11.563000 -3.121000 -2.633000
13.060000 -3.466000 -2.494000
14.953000 -3.920000 -2.332000
12.279000 -3.325000 -2.567000
13.899000 -3.711000 -2.422000
16.094999 -4.244000 -2.227000
11.565000 -3.209000 -2.641000
13.039000 -3.557000 -2.497000
14.890000 -4.011000 -2.329000
12.246000 -3.408000 -2.567000
13.901000 -3.814000 -2.429000
16.073000 -4.355000 -2.229000
11.531000 -3.286000 -2.640000
13.024000 -3.650000 -2.501000
14.888000 -4.119000 -2.335000
12.235000 -3.497000 -2.572000
13.867000 -3.906000 -2.429000
16.049000 -4.464000 -2.232000
11.503000 -3.366000 -2.641000
12.988000 -3.736000 -2.501000
14.876000 -4.225000 -2.339000
12.213000 -3.582000 -2.574000
13.831000 -3.999000 -2.430000
16.013000 -4.570000 -2.233000
11.482000 -3.448000 -2.643000
12.970000 -3.827000 -2.504000
14.852000 -4.327000 -2.341000
12.179000 -3.664000 -2.573000
13.834000 -4.102000 -2.436000
16.000000 -4.683000 -2.237000
