# This PCD file was generated using the MATLAB® pcwrite function
# from Computer Vision Toolbox®.
# .PCD v.7 - Point Cloud Data file format
VERSION .7
FIELDS x y z
SIZE 4 4 4
TYPE F F F
COUNT 1 1 1
WIDTH 1646
HEIGHT 1
VIEWPOINT 0 0 0 1 0 0 0
POINTS 1646
DATA ascii
63.076000 -43.353001 11.379000
63.037998 -44.095001 14.043000
61.255001 -43.849998 16.534000
62.924999 -42.501999 9.965000
63.796001 -43.775002 12.840000
0.000000 0.000000 0.000000
63.527000 -42.978001 11.434000
63.792999 -43.908001 14.165000
60.821999 -42.827999 16.354000
63.770000 -42.391998 10.076000
63.592999 -42.944000 12.765000
59.341999 -40.887001 14.520000
63.268002 -42.120998 11.363000
0.000000 0.000000 0.000000
63.131001 -43.723000 16.915001
63.716999 -41.688999 10.047000
67.734001 -45.004002 13.554000
0.000000 0.000000 0.000000
63.938999 -41.886002 11.451000
0.000000 0.000000 0.000000
0.000000 0.000000 0.000000
64.588997 -41.583000 10.164000
67.304001 -43.994999 13.431000
67.472000 -44.979000 16.393999
0.000000 0.000000 0.000000
71.920998 -47.136002 15.818000
62.137001 -41.625999 16.518000
62.691002 -39.713001 9.838000
66.785004 -42.945000 13.283000
0.000000 0.000000 0.000000
62.543999 -39.660999 11.143000
0.000000 0.000000 0.000000
59.078999 -38.915001 15.647000
60.104000 -37.462002 9.408000
59.598000 -37.701000 11.817000
71.932999 -46.382999 17.346001
60.050999 -37.459000 10.664000
62.361000 -39.535000 13.621000
62.828999 -40.694000 16.573999
65.459000 -40.132000 10.222000
60.016998 -37.338001 11.864000
66.526001 -42.178001 15.985000
67.357002 -41.330002 11.925000
59.869999 -37.327999 13.031000
0.000000 0.000000 0.000000
66.060997 -39.835999 10.284000
67.948997 -41.570999 13.383000
59.830002 -37.297001 14.322000
68.313004 -41.220001 12.059000
63.125999 -38.698002 13.693000
59.687000 -37.356998 15.617000
66.735001 -39.582001 10.358000
68.078003 -40.959000 13.362000
0.000000 0.000000 0.000000
63.226002 -37.514999 11.122000
62.743999 -37.813999 13.556000
70.606003 -43.438000 18.398001
63.612999 -37.099998 9.846000
0.000000 0.000000 0.000000
72.718002 -43.801998 17.270000
63.576000 -37.092999 11.146000
73.627998 -43.624001 15.848000
71.262001 -43.084999 18.488001
63.662998 -36.506001 9.820000
0.000000 0.000000 0.000000
113.315002 -67.083000 26.798000
0.000000 0.000000 0.000000
0.000000 0.000000 0.000000
0.000000 0.000000 0.000000
64.957001 -36.622002 9.986000
0.000000 0.000000 0.000000
0.000000 0.000000 0.000000
0.000000 0.000000 0.000000
62.880001 -35.986000 13.430000
0.000000 0.000000 0.000000
64.428001 -35.702999 9.874000
64.137001 -36.027000 12.410000
0.000000 0.000000 0.000000
61.994999 -34.353001 10.754000
0.000000 0.000000 0.000000
0.000000 0.000000 0.000000
0.000000 0.000000 0.000000
64.086998 -35.373001 12.350000
0.000000 0.000000 0.000000
65.697998 -35.772999 11.357000
64.536003 -35.657001 13.679000
0.000000 0.000000 0.000000
0.000000 0.000000 0.000000
102.487000 -55.584000 19.674000
0.000000 0.000000 0.000000
65.725998 -35.161999 11.316000
63.090000 -34.242001 13.315000
0.000000 0.000000 0.000000
60.299999 -31.709000 9.142000
64.774002 -34.507000 12.388000
0.000000 0.000000 0.000000
65.928001 -34.652000 11.307000
63.754002 -33.990002 13.401000
0.000000 0.000000 0.000000
64.045998 -33.084000 9.671000
65.819000 -34.438999 12.536000
0.000000 0.000000 0.000000
71.789001 -37.058998 12.268000
64.468002 -33.750999 13.498000
117.482002 -62.650002 29.580000
64.084000 -32.518002 9.640000
71.294998 -36.638000 13.524000
0.000000 0.000000 0.000000
64.802002 -32.851002 11.028000
65.621002 -33.730000 13.681000
117.986000 -61.758999 29.572001
62.361000 -31.070000 9.344000
0.000000 0.000000 0.000000
104.726997 -53.702999 23.961000
65.044998 -32.380001 11.025000
65.972000 -33.292999 13.697000
0.000000 0.000000 0.000000
66.793999 -32.676998 9.970000
0.000000 0.000000 0.000000
70.231003 -35.346001 15.997000
65.181000 -31.848000 11.003000
67.370003 -33.368000 13.931000
0.000000 0.000000 0.000000
67.899002 -32.612000 10.094000
64.200996 -31.212000 12.031000
70.623001 -34.881001 16.018000
65.776001 -31.548000 11.059000
70.025002 -34.035000 14.417000
0.000000 0.000000 0.000000
67.236000 -31.690001 9.955000
64.753998 -30.891001 12.087000
0.000000 0.000000 0.000000
69.365997 -32.651001 11.615000
70.296997 -33.525002 14.413000
0.000000 0.000000 0.000000
67.316002 -31.136999 9.926000
65.629997 -30.716000 12.197000
70.237999 -33.382999 15.794000
66.623001 -30.761999 11.110000
70.179001 -32.828999 14.330000
0.000000 0.000000 0.000000
67.560997 -30.660999 9.922000
65.792000 -30.208000 12.176000
71.054001 -33.123001 15.910000
66.036003 -29.912001 10.966000
66.984001 -30.730000 13.617000
0.000000 0.000000 0.000000
80.930000 -36.019001 11.835000
66.132004 -29.774000 12.191000
70.882004 -32.395000 15.806000
66.971001 -29.752001 11.075000
66.598000 -29.959999 13.482000
0.000000 0.000000 0.000000
0.000000 0.000000 0.000000
67.289001 -29.702999 12.349000
71.905998 -32.213001 15.963000
67.407997 -29.354000 11.101000
0.000000 0.000000 0.000000
0.000000 0.000000 0.000000
81.877998 -35.042999 11.874000
81.816002 -35.404999 14.953000
125.468002 -55.092999 27.736000
0.000000 0.000000 0.000000
0.000000 0.000000 0.000000
0.000000 0.000000 0.000000
92.267998 -38.698002 13.324000
81.072998 -34.374001 14.754000
0.000000 0.000000 0.000000
0.000000 0.000000 0.000000
0.000000 0.000000 0.000000
78.254997 -33.667999 18.778000
0.000000 0.000000 0.000000
68.917000 -28.629999 12.490000
125.033997 -52.687000 27.405001
68.963997 -28.264000 11.214000
0.000000 0.000000 0.000000
0.000000 0.000000 0.000000
74.052002 -29.820000 10.603000
69.347000 -28.219999 12.516000
79.629997 -32.862000 17.381001
0.000000 0.000000 0.000000
0.000000 0.000000 0.000000
78.903999 -32.546001 18.771999
74.389000 -29.330999 10.606000
68.518997 -27.297001 12.314000
0.000000 0.000000 0.000000
75.375999 -29.632000 12.155000
70.459999 -28.017000 13.909000
79.336998 -32.033001 18.796000
59.150002 -22.837000 8.397000
68.681000 -26.787001 12.292000
68.669998 -27.150000 14.863000
69.389999 -26.695999 11.142000
69.140999 -26.900999 13.591000
0.000000 0.000000 0.000000
74.183998 -28.035999 10.487000
69.589996 -26.563999 12.403000
69.172997 -26.761000 14.910000
68.639000 -25.844000 10.976000
69.599998 -26.497000 13.625000
68.171997 -26.341000 16.016001
59.280998 -21.916000 8.344000
68.697998 -25.646999 12.194000
69.418999 -26.268999 14.902000
68.129997 -25.097000 10.849000
69.712997 -25.961000 13.591000
68.539001 -25.899000 16.035999
59.221001 -21.417999 8.301000
68.976997 -25.186001 12.193000
69.459000 -25.694000 14.849000
68.870003 -24.802000 10.921000
68.681000 -25.000000 13.335000
68.665001 -25.361000 15.998000
57.665001 -20.393999 8.048000
69.430000 -24.785999 12.223000
69.166000 -25.010000 14.727000
68.436996 -24.096001 10.808000
69.903999 -24.872000 13.518000
70.019997 -25.268000 16.250000
57.633999 -19.917999 8.010000
72.066002 -25.135000 12.635000
68.869003 -24.330000 14.603000
68.677002 -23.632000 10.801000
68.487999 -23.809999 13.191000
70.002998 -24.677999 16.181000
58.047001 -19.601999 8.034000
70.032997 -23.863001 12.230000
70.332001 -24.264999 14.856000
70.262001 -23.610001 11.005000
0.000000 0.000000 0.000000
0.000000 0.000000 0.000000
58.194000 -19.195000 8.021000
0.000000 0.000000 0.000000
70.793999 -23.846001 14.895000
71.133003 -23.340000 11.097000
73.375999 -24.316000 14.021000
86.102997 -28.921000 19.746000
58.203999 -18.737000 7.988000
71.780998 -23.306999 12.436000
71.064003 -23.358000 14.892000
71.079002 -22.764999 11.044000
74.007004 -23.933001 14.087000
72.320000 -23.700001 16.521999
58.389000 -18.344000 7.981000
72.084000 -22.837000 12.440000
80.231003 -25.719000 16.750999
72.362999 -22.603001 11.199000
0.000000 0.000000 0.000000
80.119003 -25.600000 18.232000
71.013000 -21.761999 9.668000
72.287003 -22.334000 12.427000
0.000000 0.000000 0.000000
70.689003 -21.531000 10.897000
0.000000 0.000000 0.000000
76.883003 -23.940001 17.431999
59.266998 -17.701000 8.036000
72.900002 -21.945000 12.485000
77.157997 -23.499001 15.987000
73.584000 -21.841999 11.297000
103.147003 -30.900999 19.412001
0.000000 0.000000 0.000000
59.264000 -17.247999 8.003000
73.464996 -21.546000 12.534000
83.197998 -24.674999 17.177000
79.708000 -23.042000 12.193000
73.417999 -21.410999 13.766000
0.000000 0.000000 0.000000
75.801003 -21.483000 10.195000
98.859001 -28.231001 16.805000
72.912003 -21.051001 14.999000
78.899002 -22.205999 12.023000
99.321999 -28.195000 18.555000
69.627998 -20.006001 15.616000
76.942001 -21.219000 10.310000
103.800003 -28.834000 17.579000
73.358002 -20.603001 15.036000
83.650002 -22.903999 12.698000
84.898003 -23.445000 15.804000
69.146004 -19.322001 15.454000
58.877998 -15.796000 7.859000
87.512001 -23.641001 14.769000
72.732002 -19.856001 14.857000
80.385002 -21.398001 12.159000
0.000000 0.000000 0.000000
71.004997 -19.281000 15.813000
59.081001 -15.406000 7.855000
0.000000 0.000000 0.000000
80.147003 -21.260000 16.316000
84.989998 -21.983999 12.810000
0.000000 0.000000 0.000000
71.153999 -18.761999 15.794000
59.539001 -15.079000 7.888000
0.000000 0.000000 0.000000
83.986000 -21.628000 17.039000
84.260002 -21.160999 12.653000
72.877998 -18.445000 13.427000
71.514000 -18.301001 15.822000
59.473000 -14.622000 7.850000
92.410004 -22.860001 15.433000
81.207001 -20.285000 16.422001
84.448997 -20.573999 12.639000
79.484001 -19.507000 14.595000
71.873001 -17.834000 15.848000
84.209999 -20.079000 11.075000
0.000000 0.000000 0.000000
81.560997 -19.753000 16.441000
84.672997 -20.000999 12.629000
79.367996 -18.881001 14.527000
75.114998 -18.056999 16.511999
60.243000 -13.919000 7.896000
102.960999 -23.920000 17.082001
82.281998 -19.298000 16.533001
79.726997 -18.240999 11.850000
79.281998 -18.261999 14.464000
80.694000 -18.782000 17.684000
80.776001 -18.073000 10.551000
81.759003 -18.388000 13.521000
83.126999 -18.864000 16.653000
79.596001 -17.620001 11.794000
79.445000 -17.701000 14.450000
83.549004 -18.806000 18.253000
80.986000 -17.527000 10.541000
81.624001 -17.750999 13.456000
88.083000 -19.327000 17.593000
60.977001 -13.053000 9.006000
0.000000 0.000000 0.000000
85.417999 -18.573999 18.608999
80.402000 -16.813000 10.432000
81.542000 -17.129000 13.402000
83.063004 -17.600000 16.540001
61.293999 -12.671000 9.024000
79.375000 -16.504999 14.350000
84.292000 -17.693001 18.311001
81.949997 -16.545000 10.599000
83.726997 -16.974001 13.722000
83.338997 -17.032000 16.549999
81.877998 -16.327000 12.018000
0.000000 0.000000 0.000000
83.491997 -16.893999 18.086000
80.413002 -15.654000 10.367000
84.403999 -16.492001 13.791000
83.488998 -16.443001 16.534000
60.884998 -11.700000 8.911000
98.367996 -19.000999 17.684999
83.736000 -16.312000 18.091000
60.896999 -11.415000 7.827000
83.639000 -15.730000 13.629000
81.463997 -15.439000 16.089001
61.087002 -11.297000 8.914000
82.610001 -15.349000 14.812000
80.931000 -15.158000 17.438999
61.873001 -11.156000 7.929000
85.227997 -15.412000 13.850000
84.467003 -15.381000 16.639000
61.285000 -10.890000 8.919000
82.695000 -14.757000 14.789000
81.112000 -14.591000 17.434000
79.977997 -13.848000 10.220000
86.045998 -14.934000 13.946000
81.598999 -14.257000 16.033001
72.912003 -12.435000 10.583000
80.239998 -13.737000 14.314000
81.289001 -14.017000 17.431000
63.035000 -10.464000 8.033000
85.942001 -14.293000 13.895000
0.000000 0.000000 0.000000
72.691002 -11.875000 10.523000
80.266998 -13.157000 14.283000
81.007004 -13.368000 17.327999
62.912998 -10.000000 7.996000
82.236000 -13.088000 13.263000
79.306000 -12.693000 15.510000
72.170998 -11.273000 10.422000
79.844002 -12.506000 14.176000
79.191002 -12.487000 16.902000
78.635002 -11.942000 9.968000
71.747002 -10.903000 11.544000
80.522003 -12.300000 15.712000
80.731003 -12.038000 11.630000
80.446999 -12.023000 14.251000
79.430000 -11.937000 16.917999
78.738998 -11.399000 9.957000
72.357002 -10.476000 11.616000
80.765999 -11.753000 15.726000
81.919998 -11.634000 11.773000
81.801003 -11.636000 14.459000
79.503998 -11.365000 16.898001
73.471001 -10.122000 9.269000
71.779999 -9.883000 11.499000
80.429001 -11.118000 15.630000
71.788002 -9.685000 10.294000
81.149002 -10.963000 14.314000
80.051003 -10.862000 16.980000
73.122002 -9.561000 9.203000
72.419998 -9.455000 11.577000
78.781998 -10.320000 15.279000
71.472000 -9.137000 10.227000
78.608002 -10.054000 13.839000
78.972000 -10.138000 16.719999
79.410004 -9.826000 9.973000
0.000000 0.000000 0.000000
78.380997 -9.706000 15.173000
80.892998 -9.775000 11.552000
79.962997 -9.656000 14.051000
79.148003 -9.584000 16.728001
79.360001 -9.265000 9.946000
71.834999 -8.362000 11.440000
78.991997 -9.212000 15.265000
71.995003 -8.192000 10.262000
79.322998 -9.017000 13.914000
80.028000 -9.114000 16.885000
51.882999 -5.697000 6.490000
51.744999 -5.657000 8.226000
51.590000 -5.646000 9.952000
51.997002 -5.552000 7.398000
51.928001 -5.532000 9.093000
51.779999 -5.521000 10.908000
52.215000 -5.370000 6.519000
52.080002 -5.329000 8.265000
51.941002 -5.314000 10.005000
52.201000 -5.211000 7.414000
52.078999 -5.179000 9.105000
51.896000 -5.159000 10.915000
51.868999 -4.974000 6.465000
51.787998 -4.933000 8.206000
52.058998 -4.953000 10.013000
52.338001 -4.858000 7.422000
52.202000 -4.823000 9.113000
52.056999 -4.802000 10.934000
52.342999 -4.660000 6.513000
52.554001 -4.638000 8.315000
52.395000 -4.612000 10.063000
52.292999 -4.490000 7.404000
52.051998 -4.441000 9.075000
51.737000 -4.400000 10.853000
51.879002 -4.258000 6.446000
51.528999 -4.188000 8.142000
51.167000 -4.142000 9.815000
51.173000 -4.040000 7.236000
50.908001 -3.984000 8.864000
50.625000 -3.942000 10.607000
50.782001 -3.818000 6.301000
50.445999 -3.746000 7.961000
50.076000 -3.696000 9.595000
50.120998 -3.608000 7.078000
49.862000 -3.554000 8.672000
49.577000 -3.508000 10.376000
48.189999 -3.293000 5.971000
48.139000 -3.239000 7.588000
48.022999 -3.204000 9.191000
48.237999 -3.138000 6.804000
48.102001 -3.087000 8.357000
47.999001 -3.052000 10.035000
48.752998 -2.996000 6.034000
48.438999 -2.924000 7.627000
48.134998 -2.873000 9.204000
48.167000 -2.802000 6.787000
47.789001 -2.734000 8.294000
47.555000 -2.684000 9.934000
47.823002 -2.610000 5.913000
43.825001 -2.337000 6.894000
43.580002 -2.293000 8.325000
43.654999 -2.237000 6.145000
43.584999 -2.190000 7.558000
43.569000 -2.151000 9.094000
43.896000 -2.097000 5.422000
43.782001 -2.032000 6.882000
43.708000 -1.991000 8.343000
43.886002 -1.947000 6.172000
43.759998 -1.890000 7.582000
43.695999 -1.846000 9.114000
44.021999 -1.801000 5.433000
43.905998 -1.735000 6.896000
43.821999 -1.689000 8.360000
44.023998 -1.651000 6.188000
43.840000 -1.589000 7.591000
43.794998 -1.539000 9.129000
44.150002 -1.504000 5.445000
43.897999 -1.428000 6.891000
43.217999 -1.361000 8.240000
44.035999 -1.347000 6.185000
44.131001 -1.293000 7.638000
42.712002 -1.199000 8.899000
44.360001 -1.210000 5.467000
43.125000 -1.106000 6.766000
43.719002 -1.069000 8.331000
42.613998 -1.011000 5.982000
43.537998 -0.969000 7.532000
43.104000 -0.904000 8.977000
43.557999 -0.889000 5.366000
43.205002 -0.811000 6.776000
42.928001 -0.750000 8.178000
42.792999 -0.723000 6.005000
42.745998 -0.656000 7.392000
42.382999 -0.588000 8.824000
41.547001 -0.565000 5.116000
42.493999 -0.501000 6.662000
42.152000 -0.437000 8.028000
42.342999 -0.424000 5.940000
42.023998 -0.354000 7.265000
41.687000 -0.285000 8.677000
41.998001 -0.287000 5.170000
41.743000 -0.205000 6.543000
41.441002 -0.141000 7.891000
41.639000 -0.131000 5.840000
41.284000 -0.058000 7.137000
39.673000 0.011000 8.257000
41.063000 0.000000 5.054000
39.779999 0.076000 6.235000
39.721001 0.140000 7.563000
39.919998 0.145000 5.599000
39.870998 0.219000 6.892000
39.778000 0.290000 8.279000
40.014000 0.272000 4.925000
39.875000 0.354000 6.250000
38.583000 0.409000 7.347000
40.249001 0.423000 5.645000
39.942001 0.495000 6.905000
39.622002 0.568000 8.247000
39.911999 0.541000 4.913000
39.608002 0.624000 6.209000
38.175999 0.671000 7.270000
39.581001 0.687000 5.552000
39.285999 0.762000 6.792000
38.997002 0.837000 8.118000
38.249001 0.779000 4.709000
38.952000 0.880000 6.107000
37.611000 0.923000 7.164000
37.828999 0.915000 5.308000
38.655998 1.017000 6.685000
35.400002 1.008000 7.371000
38.651001 1.050000 4.760000
35.495998 1.049000 5.567000
35.236000 1.113000 6.714000
35.411999 1.099000 4.970000
35.259998 1.171000 6.100000
35.375000 1.256000 7.369000
35.556000 1.206000 4.380000
35.470001 1.291000 5.565000
35.428001 1.366000 6.753000
35.581001 1.348000 4.996000
35.490002 1.427000 6.143000
35.470001 1.512000 7.392000
35.661999 1.455000 4.396000
35.588001 1.540000 5.587000
35.537998 1.618000 6.778000
35.665001 1.594000 5.011000
35.610001 1.678000 6.167000
35.573002 1.766000 7.418000
35.763000 1.701000 4.411000
35.682999 1.792000 5.605000
35.636002 1.874000 6.801000
35.762001 1.846000 5.028000
35.702999 1.929000 6.187000
35.520000 2.013000 7.412000
35.858002 1.948000 4.426000
35.658001 2.035000 5.605000
35.859001 2.136000 6.848000
35.825001 2.093000 5.040000
35.769001 2.184000 6.203000
35.459000 2.263000 7.404000
35.887001 2.196000 4.433000
35.636002 2.260000 5.601000
35.325001 2.331000 6.746000
35.577000 2.302000 5.005000
35.278000 2.379000 6.118000
34.950001 2.457000 7.299000
35.396000 2.387000 4.372000
35.102001 2.470000 5.522000
34.797001 2.541000 6.651000
35.066002 2.510000 4.937000
34.758999 2.584000 6.033000
34.375999 2.658000 7.185000
34.896999 2.590000 4.315000
34.592999 2.672000 5.447000
34.298000 2.745000 6.562000
34.542000 2.709000 4.868000
34.259998 2.786000 5.952000
33.450001 2.824000 6.998000
34.394001 2.787000 4.256000
34.084999 2.867000 5.372000
33.841999 2.945000 6.481000
34.049000 2.904000 4.804000
33.823002 2.987000 5.883000
32.558998 2.980000 6.819000
33.969002 2.985000 4.209000
33.654999 3.065000 5.310000
33.347000 3.137000 6.393000
25.774000 2.374000 3.641000
25.542999 2.432000 4.447000
31.955000 3.151000 6.701000
25.690001 2.431000 3.187000
25.462000 2.495000 4.022000
32.911999 3.328000 6.317000
25.452000 2.521000 3.600000
25.212999 2.577000 4.395000
31.646000 3.345000 6.643000
25.357000 2.572000 3.150000
25.122999 2.635000 3.974000
31.448000 3.400000 6.044000
25.118999 2.660000 3.557000
24.875000 2.717000 4.342000
31.341999 3.536000 6.588000
25.038000 2.713000 3.115000
24.806000 2.774000 3.929000
31.559999 3.636000 6.073000
24.781000 2.794000 3.515000
24.570000 2.854000 4.295000
31.399000 3.765000 6.610000
24.714001 2.846000 3.079000
24.468000 2.907000 3.881000
31.590000 3.862000 6.088000
24.458000 2.928000 3.474000
24.229000 2.985000 4.241000
30.962000 3.934000 6.527000
24.386000 2.974000 3.043000
24.160999 3.037000 3.838000
31.180000 4.031000 6.018000
24.158001 3.058000 3.437000
23.909000 3.113000 4.192000
30.785000 4.132000 6.500000
24.093000 3.106000 3.012000
23.849001 3.165000 3.795000
30.777000 4.198000 5.949000
23.843000 3.182000 3.397000
23.625000 3.241000 4.149000
30.419001 4.299000 6.433000
23.773001 3.227000 2.977000
23.549999 3.290000 3.754000
30.379000 4.359000 5.883000
23.546000 3.307000 3.361000
23.323999 3.364000 4.102000
30.020000 4.458000 6.359000
23.472000 3.346000 2.945000
23.243999 3.408000 3.712000
23.170000 3.488000 4.494000
23.247000 3.425000 3.325000
23.024000 3.484000 4.057000
29.687000 4.622000 6.300000
23.183001 3.466000 2.914000
22.961000 3.528000 3.673000
22.726999 3.584000 4.416000
22.966000 3.543000 3.290000
22.729000 3.599000 4.012000
27.083000 4.410000 5.758000
22.889999 3.580000 2.883000
22.681999 3.644000 3.635000
22.480000 3.705000 4.376000
22.687000 3.659000 3.257000
22.451000 3.714000 3.970000
27.080999 4.606000 5.767000
22.611000 3.692000 2.854000
22.400999 3.756000 3.597000
22.205999 3.818000 4.331000
22.391001 3.766000 3.221000
22.181000 3.826000 3.931000
27.150999 4.814000 5.794000
22.341999 3.803000 2.825000
22.114000 3.864000 3.558000
21.912001 3.925000 4.282000
22.124001 3.875000 3.189000
21.910000 3.934000 3.891000
27.222000 5.022000 5.821000
22.061001 3.909000 2.796000
21.857000 3.973000 3.525000
21.659000 4.035000 4.242000
21.857000 3.982000 3.157000
21.639000 4.040000 3.850000
27.056000 5.189000 5.797000
21.804001 4.014000 2.770000
21.591999 4.076000 3.489000
21.377001 4.135000 4.196000
21.604000 4.088000 3.127000
21.389999 4.146000 3.814000
26.759001 5.326000 5.746000
21.558001 4.119000 2.744000
21.330000 4.179000 3.454000
21.128000 4.240000 4.155000
21.349001 4.189000 3.097000
21.139000 4.248000 3.778000
27.209000 5.613000 5.856000
21.316999 4.222000 2.720000
21.106001 4.285000 3.426000
20.882000 4.342000 4.116000
21.103001 4.289000 3.068000
20.896999 4.349000 3.742000
26.898001 5.746000 5.801000
21.073999 4.321000 2.696000
20.851999 4.381000 3.392000
20.645000 4.441000 4.079000
20.879000 4.392000 3.044000
20.646999 4.446000 3.707000
26.594999 5.876000 5.749000
20.822001 4.416000 2.669000
20.629999 4.481000 3.363000
20.406000 4.538000 4.040000
20.638000 4.486000 3.015000
20.420000 4.543000 3.674000
26.292999 6.002000 5.697000
20.591999 4.512000 2.647000
20.389000 4.575000 3.333000
20.174000 4.634000 4.004000
20.407000 4.581000 2.988000
20.195999 4.639000 3.642000
26.011000 6.130000 5.649000
20.379000 4.608000 2.626000
20.164000 4.668000 3.304000
19.948999 4.727000 3.969000
20.177999 4.673000 2.963000
19.966999 4.731000 3.610000
25.660000 6.236000 5.587000
20.146999 4.698000 2.602000
19.934999 4.759000 3.274000
19.725000 4.819000 3.934000
19.962999 4.765000 2.938000
19.747999 4.822000 3.579000
25.382999 6.356000 5.540000
19.915001 4.785000 2.579000
19.712999 4.848000 3.246000
19.516001 4.911000 3.902000
19.745001 4.855000 2.913000
19.523001 4.910000 3.547000
25.129999 6.480000 5.498000
19.714001 4.877000 2.560000
19.499001 4.936000 3.219000
19.292000 4.996000 3.867000
19.528999 4.942000 2.889000
19.316000 4.999000 3.519000
24.813999 6.584000 5.444000
19.499001 4.963000 2.538000
19.288000 5.023000 3.192000
19.275000 5.134000 3.873000
19.320999 5.027000 2.865000
19.215000 5.112000 3.509000
24.535999 6.692000 5.396000
19.296000 5.049000 2.519000
19.187000 5.136000 3.183000
19.351000 5.297000 3.898000
19.131001 5.116000 2.844000
19.295000 5.275000 3.532000
24.301001 6.811000 5.358000
19.110001 5.136000 2.501000
19.247000 5.291000 3.201000
19.427999 5.463000 3.924000
19.201000 5.274000 2.862000
19.350000 5.433000 3.552000
24.007000 6.908000 5.306000
19.170000 5.291000 2.515000
19.320000 5.453000 3.221000
19.488001 5.625000 3.946000
19.278999 5.434000 2.881000
19.434000 5.600000 3.576000
23.202000 6.852000 5.143000
19.240000 5.449000 2.531000
19.382000 5.612000 3.240000
19.584999 5.799000 3.976000
19.343000 5.594000 2.898000
19.511000 5.767000 3.599000
23.233999 7.038000 5.163000
19.313000 5.608000 2.547000
19.468000 5.780000 3.263000
23.316999 7.079000 4.747000
19.422001 5.758000 2.918000
19.572001 5.930000 3.620000
23.284000 7.229000 5.188000
19.372000 5.766000 2.561000
19.527000 5.942000 3.281000
23.155001 7.205000 4.726000
19.474001 5.916000 2.933000
23.347000 7.247000 4.330000
23.049000 7.332000 5.150000
19.438999 5.927000 2.577000
23.277000 7.256000 3.922000
22.902000 7.298000 4.686000
23.264000 7.238000 3.512000
23.055000 7.330000 4.286000
22.763000 7.416000 5.099000
23.344999 7.287000 3.103000
23.079000 7.364000 3.899000
22.681000 7.399000 4.654000
23.027000 7.334000 3.486000
22.841000 7.433000 4.258000
22.535000 7.513000 5.061000
23.044001 7.363000 3.070000
22.853001 7.463000 3.870000
22.461000 7.499000 4.620000
22.782000 7.423000 3.458000
22.628000 7.533000 4.229000
22.313999 7.612000 5.026000
22.243999 7.270000 2.971000
22.598000 7.549000 3.837000
22.233000 7.592000 4.585000
22.493000 7.496000 3.422000
22.388000 7.623000 4.194000
22.096001 7.707000 4.990000
22.028000 7.360000 2.950000
22.351000 7.632000 3.805000
22.031000 7.691000 4.556000
21.815001 7.433000 3.327000
22.152000 7.711000 4.162000
21.856001 7.793000 4.948000
22.422001 7.658000 3.009000
22.080000 7.706000 3.767000
21.830999 7.788000 4.526000
21.582001 7.513000 3.300000
21.915001 7.794000 4.128000
21.634001 7.883000 4.912000
22.198999 7.747000 2.987000
21.346001 7.610000 3.651000
21.639000 7.887000 4.497000
21.867001 7.776000 3.350000
21.635000 7.859000 4.084000
21.419001 7.971000 4.876000
21.983000 7.833000 2.965000
21.142000 7.698000 3.626000
21.444000 7.982000 4.469000
21.645000 7.860000 3.325000
20.916000 7.757000 3.958000
21.207001 8.059000 4.839000
21.783001 7.925000 2.943000
21.521000 8.000000 3.699000
20.691999 7.862000 4.323000
21.409000 7.935000 3.297000
20.737000 7.850000 3.935000
20.988001 8.141000 4.802000
21.589001 8.016000 2.924000
21.320000 8.087000 3.673000
20.448000 7.928000 4.282000
21.190001 8.014000 3.269000
21.073999 8.141000 4.007000
20.195999 7.992000 4.633000
21.374001 8.095000 2.901000
21.087999 8.160000 3.642000
20.322001 8.038000 4.267000
21.000000 8.101000 3.248000
20.872999 8.223000 3.978000
20.021000 8.082000 4.604000
21.184000 8.183000 2.881000
20.889000 8.244000 3.615000
20.611000 8.313000 4.338000
20.815001 8.187000 3.226000
20.667999 8.303000 3.949000
18.834000 7.753000 4.342000
20.955999 8.253000 2.856000
20.679001 8.319000 3.586000
18.860001 7.756000 3.978000
20.649000 8.280000 3.206000
18.910000 7.744000 3.621000
18.656000 7.827000 4.312000
20.759001 8.331000 2.834000
18.934999 7.763000 3.291000
18.683001 7.831000 3.951000
18.980000 7.756000 2.953000
18.747999 7.823000 3.598000
18.870001 8.069000 4.371000
18.978001 7.761000 2.595000
18.753000 7.834000 3.266000
18.896999 8.069000 4.005000
18.806000 7.828000 2.932000
18.920000 8.043000 3.639000
18.947001 8.254000 4.400000
18.806999 7.834000 2.577000
18.943001 8.059000 3.305000
18.981001 8.256000 4.031000
18.985001 8.048000 2.964000
19.000000 8.226000 3.661000
19.018000 8.437000 4.427000
19.023001 8.068000 2.610000
19.025000 8.243000 3.327000
19.047001 8.437000 4.055000
19.051001 8.223000 2.980000
19.068001 8.405000 3.681000
19.091999 8.624000 4.453000
19.087999 8.242000 2.622000
19.094999 8.422000 3.344000
19.136000 8.628000 4.082000
19.122999 8.402000 2.996000
19.145000 8.591000 3.704000
18.996000 8.735000 4.441000
19.165001 8.422000 2.637000
19.169001 8.604000 3.362000
19.042999 8.739000 4.069000
19.207001 8.588000 3.013000
19.089001 8.717000 3.699000
19.096001 8.936000 4.474000
19.238001 8.602000 2.650000
19.115999 8.730000 3.359000
19.153999 8.943000 4.102000
19.169001 8.719000 3.011000
19.204000 8.921000 3.728000
18.893999 8.995000 4.435000
19.184999 8.727000 2.645000
19.232000 8.935000 3.384000
18.948000 8.999000 4.065000
19.260000 8.910000 3.030000
19.000999 8.978000 3.695000
18.679001 9.046000 4.394000
19.295000 8.925000 2.663000
19.031000 8.991000 3.353000
18.775000 9.069000 4.034000
19.084999 8.979000 3.005000
18.872999 9.068000 3.675000
18.465000 9.092000 4.351000
19.101999 8.983000 2.639000
18.888000 9.073000 3.333000
18.624001 9.147000 4.009000
18.941000 9.059000 2.985000
18.702999 9.136000 3.647000
18.301001 9.162000 4.320000
18.976000 9.072000 2.622000
18.709000 9.135000 3.304000
18.433001 9.201000 3.974000
18.750999 9.114000 2.959000
18.511000 9.190000 3.615000
18.096001 9.209000 4.279000
18.774000 9.121000 2.595000
18.539000 9.199000 3.278000
18.308001 9.288000 3.952000
18.627001 9.201000 2.940000
18.365000 9.265000 3.590000
17.952000 9.283000 4.252000
18.618000 9.190000 2.575000
18.400000 9.277000 3.257000
18.139000 9.350000 3.922000
18.434999 9.250000 2.911000
18.174000 9.314000 3.556000
17.804001 9.353000 4.222000
18.468000 9.260000 2.554000
18.207001 9.324000 3.224000
17.969000 9.408000 3.889000
18.299000 9.327000 2.892000
18.056999 9.400000 3.538000
17.712999 9.452000 4.207000
18.290001 9.313000 2.529000
18.086000 9.406000 3.205000
17.820000 9.476000 3.860000
18.138000 9.388000 2.866000
17.877001 9.450000 3.504000
17.559999 9.515000 4.176000
18.162001 9.390000 2.511000
17.891001 9.447000 3.172000
17.656000 9.533000 3.829000
17.995001 9.455000 2.843000
17.743000 9.522000 3.480000
17.451000 9.601000 4.154000
17.993000 9.444000 2.485000
17.784000 9.534000 3.153000
17.520000 9.602000 3.803000
17.825001 9.507000 2.817000
17.580999 9.577000 3.450000
17.285000 9.654000 4.119000
17.851000 9.509000 2.464000
17.615999 9.584000 3.124000
17.385000 9.671000 3.775000
17.693001 9.578000 2.794000
17.448000 9.646000 3.424000
17.167999 9.730000 4.095000
17.726999 9.582000 2.445000
17.462000 9.640000 3.097000
17.212999 9.717000 3.741000
17.503000 9.612000 2.763000
17.309000 9.708000 3.398000
17.016001 9.785000 4.060000
17.534000 9.615000 2.415000
17.351000 9.717000 3.075000
17.087000 9.784000 3.714000
17.407000 9.697000 2.746000
17.149000 9.758000 3.367000
16.865999 9.838000 4.027000
17.427999 9.694000 2.397000
17.172001 9.754000 3.042000
16.924000 9.830000 3.678000
17.266001 9.756000 2.720000
17.013000 9.818000 3.338000
16.754999 9.913000 4.003000
17.281000 9.748000 2.373000
17.049999 9.821000 3.019000
16.792999 9.891000 3.650000
17.091000 9.792000 2.689000
16.865999 9.868000 3.308000
16.608000 9.964000 3.968000
17.125999 9.795000 2.346000
16.889999 9.864000 2.987000
16.683001 9.963000 3.627000
16.979000 9.862000 2.668000
16.728001 9.923000 3.280000
16.480000 10.023000 3.937000
17.014999 9.864000 2.325000
16.730000 9.904000 2.955000
16.528999 10.005000 3.591000
16.849001 9.919000 2.642000
16.615999 9.989000 3.256000
16.368000 10.090000 3.911000
16.875999 9.915000 2.302000
16.590000 9.952000 2.927000
16.392000 10.055000 3.559000
16.694000 9.959000 2.613000
16.487000 10.044000 3.226000
16.212999 10.128000 3.872000
16.718000 9.954000 2.272000
16.368999 9.950000 2.884000
16.299000 10.131000 3.537000
16.599001 10.033000 2.593000
16.333000 10.081000 3.192000
16.065001 10.167000 3.834000
16.608000 10.017000 2.250000
16.198000 9.975000 2.847000
16.143000 10.165000 3.499000
16.478001 10.090000 2.566000
16.231001 10.148000 3.168000
15.937000 10.217000 3.802000
16.496000 10.077000 2.228000
16.089001 10.034000 2.823000
16.032000 10.223000 3.470000
16.343000 10.134000 2.538000
16.105000 10.197000 3.137000
15.838000 10.283000 3.774000
16.385000 10.136000 2.203000
15.986000 10.096000 2.798000
15.903000 10.269000 3.438000
16.195000 10.168000 2.508000
15.999000 10.257000 3.111000
15.726000 10.337000 3.743000
16.225000 10.162000 2.173000
15.922000 10.180000 2.779000
15.767000 10.307000 3.402000
16.072001 10.216000 2.479000
15.878000 10.304000 3.080000
15.615000 10.391000 3.713000
16.113001 10.216000 2.148000
15.865000 10.268000 2.761000
15.667000 10.367000 3.374000
15.979000 10.280000 2.455000
15.728000 10.330000 3.042000
15.282000 10.291000 3.626000
16.011999 10.275000 2.123000
15.776000 10.332000 2.737000
15.558000 10.417000 3.344000
15.839000 10.311000 2.425000
15.614000 10.377000 3.013000
14.869000 10.132000 3.522000
15.866000 10.301000 2.092000
15.675000 10.387000 2.708000
14.952000 10.129000 3.205000
15.753000 10.376000 2.399000
15.090000 10.145000 2.902000
15.019000 10.353000 3.551000
15.773000 10.360000 2.069000
15.515000 10.399000 2.670000
15.005000 10.281000 3.208000
15.641000 10.420000 2.371000
14.923000 10.148000 2.859000
15.058000 10.498000 3.551000
15.671000 10.412000 2.042000
14.973000 10.150000 2.567000
15.036000 10.418000 3.206000
15.040000 10.133000 2.268000
15.049000 10.347000 2.873000
15.045000 10.605000 3.539000
15.070000 10.124000 1.950000
15.073000 10.332000 2.571000
15.132000 10.601000 3.214000
15.066000 10.263000 2.259000
15.151000 10.533000 2.882000
14.931000 10.639000 3.502000
15.063000 10.230000 1.936000
15.059000 10.434000 2.556000
15.038000 10.648000 3.183000
15.123000 10.413000 2.253000
15.084000 10.599000 2.855000
14.828000 10.679000 3.466000
15.151000 10.402000 1.932000
15.138000 10.600000 2.557000
14.923000 10.679000 3.147000
15.219000 10.591000 2.254000
14.974000 10.632000 2.821000
14.746000 10.730000 3.435000
15.261000 10.587000 1.930000
15.025000 10.632000 2.522000
14.843000 10.731000 3.116000
15.124000 10.634000 2.223000
14.862000 10.660000 2.787000
14.635000 10.758000 3.397000
15.161000 10.626000 1.901000
14.944000 10.681000 2.493000
14.741000 10.764000 3.081000
15.024000 10.670000 2.192000
14.733000 10.674000 2.746000
14.544000 10.796000 3.361000
15.058000 10.661000 1.870000
14.867000 10.732000 2.465000
14.649000 10.802000 3.047000
14.923000 10.704000 2.161000
14.588000 10.672000 2.704000
14.467000 10.843000 3.329000
14.953000 10.690000 1.839000
14.780000 10.773000 2.432000
14.538000 10.823000 3.007000
14.830000 10.740000 2.129000
14.516000 10.720000 2.674000
14.397000 10.892000 3.298000
14.864000 10.730000 1.810000
14.683000 10.803000 2.399000
14.452000 10.858000 2.973000
14.729000 10.767000 2.095000
14.478000 10.791000 2.649000
14.315000 10.929000 3.261000
14.767000 10.760000 1.777000
14.584000 10.829000 2.365000
14.365000 10.891000 2.938000
14.649000 10.807000 2.065000
14.440000 10.860000 2.623000
14.219000 10.951000 3.222000
14.688000 10.799000 1.747000
14.497000 10.861000 2.330000
14.310000 10.944000 2.907000
14.579000 10.852000 2.034000
14.363000 10.897000 2.591000
14.123000 10.970000 3.182000
14.626000 10.849000 1.719000
14.414000 10.891000 2.296000
14.233000 10.977000 2.872000
14.508000 10.892000 2.003000
14.294000 10.936000 2.557000
14.076000 11.025000 3.151000
14.546000 10.884000 1.687000
14.357000 10.940000 2.267000
14.133000 10.990000 2.832000
14.419000 10.916000 1.969000
14.247000 10.989000 2.527000
14.005000 11.056000 3.115000
14.459000 10.908000 1.654000
14.276000 10.967000 2.231000
14.061000 11.021000 2.795000
14.336000 10.942000 1.935000
14.155000 11.004000 2.490000
13.932000 11.083000 3.078000
14.380000 10.937000 1.622000
14.181000 10.980000 2.194000
14.024000 11.075000 2.766000
14.290000 10.993000 1.905000
14.072000 11.023000 2.451000
13.845000 11.094000 3.035000
14.329000 10.984000 1.591000
14.128000 11.021000 2.163000
13.924000 11.077000 2.724000
14.204000 11.009000 1.869000
14.025000 11.067000 2.420000
13.806000 11.142000 3.004000
14.242000 10.998000 1.556000
14.072000 11.058000 2.128000
13.786000 11.044000 2.672000
14.122000 11.026000 1.833000
13.956000 11.090000 2.384000
13.718000 11.146000 2.961000
14.157000 11.013000 1.521000
13.995000 11.075000 2.092000
13.694000 11.044000 2.629000
14.087000 11.075000 1.803000
13.879000 11.103000 2.344000
13.695000 11.198000 2.930000
14.115000 11.058000 1.490000
13.953000 11.116000 2.060000
13.665000 11.092000 2.599000
14.025000 11.100000 1.769000
13.851000 11.152000 2.313000
13.620000 11.205000 2.888000
13.965000 11.013000 1.447000
13.888000 11.135000 2.023000
13.669000 11.162000 2.572000
13.936000 11.102000 1.730000
13.758000 11.145000 2.272000
13.581000 11.238000 2.853000
13.621000 10.810000 1.384000
13.819000 11.146000 1.985000
13.637000 11.200000 2.539000
13.904000 11.143000 1.698000
13.744000 11.198000 2.240000
13.523000 11.252000 2.812000
13.459000 10.748000 1.340000
13.776000 11.176000 1.951000
13.615000 11.243000 2.507000
13.830000 11.148000 1.660000
13.662000 11.192000 2.198000
13.498000 11.287000 2.778000
13.384000 10.750000 1.304000
13.710000 11.184000 1.912000
13.542000 11.241000 2.464000
13.805000 11.189000 1.628000
13.643000 11.234000 2.167000
13.427000 11.283000 2.735000
13.347000 10.779000 1.272000
13.680000 11.216000 1.878000
13.528000 11.281000 2.431000
13.725000 11.182000 1.588000
13.572000 11.230000 2.124000
13.392000 11.302000 2.696000
13.376000 10.858000 1.245000
13.657000 11.251000 1.845000
13.471000 11.284000 2.391000
13.711000 11.225000 1.555000
13.556000 11.267000 2.091000
13.269000 11.245000 2.641000
13.631000 11.119000 1.237000
13.587000 11.243000 1.803000
13.443000 11.306000 2.354000
13.666000 11.239000 1.520000
13.515000 11.280000 2.054000
13.198000 11.226000 2.595000
13.705000 11.230000 1.212000
13.571000 11.277000 1.770000
13.424000 11.332000 2.318000
13.616000 11.245000 1.481000
13.475000 11.288000 2.015000
13.224000 11.286000 2.567000
13.656000 11.237000 1.176000
13.529000 11.285000 1.733000
13.368000 11.323000 2.276000
13.577000 11.256000 1.444000
13.459000 11.314000 1.980000
13.260000 11.351000 2.541000
13.642000 11.269000 1.141000
13.493000 11.294000 1.694000
13.337000 11.332000 2.237000
13.298000 11.063000 1.383000
13.445000 11.338000 1.945000
13.242000 11.366000 2.504000
13.610000 11.283000 1.105000
13.482000 11.320000 1.659000
13.325000 11.351000 2.201000
13.103000 10.936000 1.329000
13.378000 11.312000 1.900000
13.232000 11.383000 2.467000
13.562000 11.280000 1.068000
13.461000 11.333000 1.623000
13.311000 11.366000 2.164000
13.027000 10.904000 1.289000
13.364000 11.328000 1.864000
13.225000 11.399000 2.430000
13.547000 11.299000 1.032000
13.409000 11.317000 1.581000
13.281000 11.363000 2.124000
13.017000 10.922000 1.255000
13.363000 11.350000 1.830000
13.215000 11.408000 2.393000
13.544000 11.325000 0.997000
13.401000 11.333000 1.545000
13.267000 11.369000 2.086000
13.096000 11.012000 1.228000
13.350000 11.359000 1.792000
13.210000 11.417000 2.355000
13.522000 11.331000 0.961000
13.400000 11.352000 1.511000
13.265000 11.381000 2.050000
13.363000 11.257000 1.218000
13.338000 11.363000 1.754000
13.197000 11.416000 2.316000
13.469000 11.309000 0.921000
13.390000 11.359000 1.473000
13.266000 11.392000 2.013000
13.424000 11.325000 1.188000
13.318000 11.358000 1.716000
13.183000 11.409000 2.277000
13.465000 11.322000 0.885000
13.370000 11.354000 1.435000
13.256000 11.389000 1.975000
13.425000 11.338000 1.151000
13.317000 11.363000 1.678000
13.183000 11.409000 2.238000
13.457000 11.328000 0.849000
13.221000 11.234000 1.383000
13.261000 11.395000 1.938000
13.430000 11.351000 1.116000
13.307000 11.358000 1.640000
13.208000 11.428000 2.205000
13.456000 11.336000 0.812000
12.943000 11.001000 1.317000
13.270000 11.401000 1.902000
13.428000 11.354000 1.080000
13.303000 11.354000 1.604000
13.223000 11.434000 2.169000
13.454000 11.339000 0.775000
12.889000 10.954000 1.276000
13.272000 11.396000 1.864000
13.437000 11.362000 1.043000
13.315000 11.358000 1.566000
13.205000 11.407000 2.127000
13.449000 11.336000 0.739000
12.905000 10.964000 1.242000
13.277000 11.390000 1.827000
13.435000 11.356000 1.006000
13.338000 11.369000 1.532000
13.231000 11.414000 2.092000
13.463000 11.345000 0.702000
13.096000 11.118000 1.224000
13.281000 11.378000 1.789000
13.442000 11.354000 0.970000
13.341000 11.358000 1.494000
13.245000 11.407000 2.056000
13.460000 11.335000 0.666000
13.337000 11.309000 1.209000
13.296000 11.373000 1.753000
13.447000 11.348000 0.932000
13.381000 11.375000 1.461000
13.256000 11.392000 2.018000
13.465000 11.328000 0.630000
13.414000 11.358000 1.179000
13.323000 11.373000 1.718000
13.449000 11.334000 0.896000
13.372000 11.347000 1.422000
13.272000 11.379000 1.981000
13.476000 11.323000 0.593000
13.426000 11.347000 1.142000
13.355000 11.373000 1.683000
13.467000 11.329000 0.861000
13.249000 11.218000 1.371000
13.291000 11.364000 1.945000
13.494000 11.320000 0.557000
13.433000 11.329000 1.105000
13.381000 11.366000 1.648000
13.483000 11.320000 0.823000
13.020000 10.995000 1.310000
13.344000 11.374000 1.913000
13.531000 11.328000 0.523000
13.469000 11.331000 1.071000
13.396000 11.344000 1.611000
13.527000 11.330000 0.789000
12.980000 10.930000 1.270000
13.370000 11.357000 1.878000
13.572000 11.335000 0.486000
13.513000 11.336000 1.037000
13.417000 11.324000 1.575000
13.571000 11.336000 0.756000
13.013000 10.924000 1.237000
13.377000 11.321000 1.840000
13.590000 11.320000 0.451000
13.541000 11.324000 1.002000
13.480000 11.335000 1.544000
13.581000 11.309000 0.719000
13.241000 11.075000 1.221000
13.448000 11.334000 1.810000
13.605000 11.299000 0.416000
13.555000 11.296000 0.966000
13.512000 11.317000 1.509000
13.592000 11.280000 0.683000
13.495000 11.244000 1.208000
13.494000 11.323000 1.777000
13.623000 11.276000 0.380000
13.599000 11.289000 0.932000
13.536000 11.289000 1.474000
13.661000 11.296000 0.651000
13.613000 11.295000 1.181000
13.506000 11.280000 1.740000
13.688000 11.289000 0.346000
13.658000 11.291000 0.900000
13.593000 11.284000 1.442000
13.685000 11.270000 0.615000
13.639000 11.266000 1.146000
13.589000 11.292000 1.712000
13.710000 11.262000 0.312000
13.671000 11.252000 0.864000
13.470000 11.126000 1.392000
13.699000 11.233000 0.580000
13.673000 11.239000 1.112000
13.614000 11.253000 1.677000
13.738000 11.237000 0.277000
13.745000 11.259000 0.833000
13.222000 10.864000 1.330000
13.781000 11.247000 0.548000
13.741000 11.238000 1.082000
13.684000 11.248000 1.648000
13.810000 11.244000 0.243000
13.775000 11.227000 0.799000
13.245000 10.824000 1.297000
13.813000 11.217000 0.514000
13.773000 11.203000 1.048000
13.712000 11.205000 1.613000
13.838000 11.211000 0.210000
13.811000 11.196000 0.766000
13.306000 10.811000 1.268000
13.866000 11.201000 0.482000
13.848000 11.200000 1.018000
13.791000 11.200000 1.585000
13.864000 11.173000 0.176000
13.882000 11.189000 0.734000
13.551000 10.943000 1.257000
13.915000 11.179000 0.450000
13.886000 11.164000 0.985000
13.840000 11.168000 1.554000
13.849000 11.100000 0.143000
13.922000 11.155000 0.702000
13.836000 11.101000 1.246000
13.956000 11.146000 0.417000
13.957000 11.151000 0.955000
13.920000 11.157000 1.528000
13.875000 11.057000 0.110000
13.996000 11.146000 0.672000
13.961000 11.127000 1.222000
14.035000 11.140000 0.386000
14.000000 11.112000 0.924000
13.963000 11.113000 1.495000
14.014000 11.099000 0.079000
14.052000 11.117000 0.641000
14.052000 11.123000 1.196000
14.105000 11.125000 0.355000
14.085000 11.104000 0.896000
13.981000 11.048000 1.462000
14.122000 11.114000 0.048000
14.116000 11.092000 0.611000
14.096000 11.077000 1.165000
14.149000 11.085000 0.324000
14.154000 11.079000 0.866000
13.792000 10.817000 1.409000
14.180000 11.085000 0.017000
14.207000 11.086000 0.582000
14.176000 11.058000 1.137000
14.241000 11.079000 0.294000
14.204000 11.038000 0.837000
13.697000 10.659000 1.365000
14.260000 11.071000 -0.014000
14.241000 11.031000 0.551000
14.253000 11.033000 1.111000
14.280000 11.030000 0.264000
14.290000 11.021000 0.809000
13.742000 10.609000 1.337000
14.298000 11.021000 -0.044000
14.321000 11.010000 0.523000
14.311000 10.990000 1.082000
14.341000 10.994000 0.234000
14.375000 10.999000 0.782000
13.842000 10.599000 1.315000
14.374000 10.997000 -0.074000
14.410000 10.992000 0.496000
14.393000 10.964000 1.056000
14.369000 10.931000 0.205000
14.422000 10.947000 0.753000
14.052000 10.668000 1.302000
14.473000 10.987000 -0.103000
14.465000 10.945000 0.467000
14.489000 10.944000 1.032000
14.379000 10.852000 0.176000
14.528000 10.937000 0.728000
14.414000 10.849000 1.303000
14.531000 10.945000 -0.132000
14.543000 10.914000 0.440000
14.579000 10.917000 1.006000
14.508000 10.859000 0.149000
14.612000 10.905000 0.702000
14.574000 10.873000 1.286000
14.608000 10.913000 -0.161000
14.644000 10.897000 0.414000
14.633000 10.862000 0.979000
14.666000 10.885000 0.122000
14.682000 10.862000 0.676000
14.681000 10.852000 1.264000
14.712000 10.897000 -0.189000
14.728000 10.862000 0.387000
14.717000 10.826000 0.955000
14.766000 10.865000 0.096000
14.759000 10.821000 0.651000
14.786000 10.829000 1.243000
14.785000 10.857000 -0.217000
14.788000 10.810000 0.361000
14.818000 10.799000 0.932000
14.831000 10.815000 0.069000
14.848000 10.786000 0.626000
14.857000 10.778000 1.219000
14.859000 10.815000 -0.244000
14.886000 10.782000 0.337000
14.922000 10.772000 0.910000
14.912000 10.775000 0.043000
14.957000 10.764000 0.603000
14.939000 10.732000 1.196000
14.937000 10.772000 -0.270000
14.980000 10.748000 0.312000
15.023000 10.741000 0.888000
15.021000 10.753000 0.018000
15.063000 10.737000 0.580000
15.024000 10.686000 1.174000
15.041000 10.747000 -0.297000
15.056000 10.700000 0.288000
15.116000 10.700000 0.866000
15.121000 10.721000 -0.007000
15.141000 10.685000 0.557000
15.123000 10.649000 1.154000
15.140000 10.715000 -0.323000
15.101000 10.627000 0.263000
15.207000 10.656000 0.844000
15.218000 10.686000 -0.031000
15.257000 10.661000 0.535000
15.241000 10.620000 1.135000
15.241000 10.680000 -0.348000
15.151000 10.554000 0.239000
15.298000 10.611000 0.823000
15.328000 10.656000 -0.055000
15.355000 10.620000 0.514000
15.319000 10.563000 1.114000
15.345000 10.647000 -0.373000
15.279000 10.535000 0.218000
15.209000 10.438000 0.793000
15.423000 10.612000 -0.078000
15.246000 10.434000 0.486000
15.221000 10.384000 1.082000
15.448000 10.610000 -0.397000
15.280000 10.428000 0.195000
15.222000 10.336000 0.769000
15.300000 10.418000 -0.100000
15.243000 10.322000 0.462000
15.085000 10.179000 1.047000
15.340000 10.426000 -0.416000
15.252000 10.297000 0.172000
15.121000 10.158000 0.741000
15.291000 10.304000 -0.121000
15.158000 10.155000 0.437000
15.176000 10.128000 1.029000
15.314000 10.298000 -0.435000
15.196000 10.149000 0.150000
15.481000 10.283000 0.735000
15.223000 10.147000 -0.141000
15.725000 10.418000 0.431000
15.775000 10.411000 1.046000
15.248000 10.144000 -0.453000
15.816000 10.448000 0.135000
15.835000 10.402000 0.729000
15.841000 10.443000 -0.167000
15.880000 10.404000 0.413000
15.875000 10.357000 1.029000
15.867000 10.439000 -0.490000
15.929000 10.405000 0.114000
15.932000 10.347000 0.711000
15.966000 10.409000 -0.188000
15.994000 10.361000 0.395000
15.980000 10.306000 1.013000
15.989000 10.403000 -0.513000
16.027000 10.351000 0.096000
16.104000 10.338000 0.697000
16.066999 10.356000 -0.208000
16.094000 10.305000 0.376000
16.106001 10.266000 0.998000
16.087999 10.349000 -0.534000
16.149000 10.310000 0.077000
16.194000 10.274000 0.679000
16.186001 10.313000 -0.228000
16.142000 10.216000 0.358000
16.221001 10.215000 0.984000
16.216999 10.311000 -0.555000
16.261999 10.260000 0.058000
16.326000 10.236000 0.665000
16.290001 10.259000 -0.247000
16.254000 10.165000 0.342000
16.382999 10.194000 0.973000
16.327000 10.261000 -0.576000
16.367001 10.204000 0.041000
16.434999 10.179000 0.649000
16.403999 10.207000 -0.266000
16.312000 10.078000 0.323000
16.510000 10.148000 0.960000
16.427999 10.202000 -0.595000
16.478001 10.150000 0.024000
16.531000 10.114000 0.634000
16.521000 10.156000 -0.285000
16.468000 10.051000 0.309000
16.611000 10.082000 0.946000
16.542000 10.147000 -0.615000
16.600000 10.100000 0.006000
16.658001 10.066000 0.620000
16.636999 10.104000 -0.302000
16.604000 10.009000 0.295000
16.749001 10.039000 0.934000
16.681000 10.107000 -0.634000
16.757000 10.069000 -0.008000
16.787001 10.016000 0.607000
16.794001 10.072000 -0.321000
16.785000 9.991000 0.280000
16.836000 9.964000 0.921000
16.815001 10.063000 -0.653000
16.891001 10.022000 -0.024000
16.958000 9.989000 0.596000
16.924000 10.023000 -0.338000
16.973000 9.974000 0.268000
17.003000 9.932000 0.912000
16.952999 10.016000 -0.672000
17.011999 9.967000 -0.039000
17.055000 9.918000 0.582000
17.049999 9.969000 -0.354000
17.093000 9.916000 0.254000
17.125000 9.874000 0.901000
17.063999 9.954000 -0.690000
17.134001 9.907000 -0.054000
17.165001 9.851000 0.570000
17.158001 9.901000 -0.370000
17.212999 9.856000 0.241000
17.247000 9.813000 0.891000
17.186001 9.895000 -0.707000
17.240000 9.839000 -0.068000
17.288000 9.790000 0.559000
17.274000 9.838000 -0.385000
17.333000 9.792000 0.228000
17.372000 9.751000 0.881000
17.313000 9.836000 -0.724000
17.422001 9.811000 -0.082000
17.474001 9.764000 0.550000
17.457001 9.811000 -0.402000
17.504000 9.757000 0.217000
17.556999 9.722000 0.875000
17.482000 9.800000 -0.742000
17.549999 9.749000 -0.096000
17.600000 9.699000 0.539000
17.577000 9.745000 -0.417000
17.625999 9.692000 0.205000
17.662001 9.647000 0.865000
17.600000 9.734000 -0.757000
17.662001 9.679000 -0.109000
17.712999 9.628000 0.529000
17.700001 9.679000 -0.430000
17.738001 9.618000 0.193000
17.791000 9.581000 0.856000
17.674999 9.641000 -0.771000
17.829000 9.636000 -0.121000
17.868000 9.578000 0.520000
17.867001 9.636000 -0.445000
17.937000 9.592000 0.183000
17.979000 9.547000 0.851000
17.804001 9.576000 -0.785000
17.969999 9.575000 -0.133000
17.952999 9.486000 0.510000
18.010000 9.577000 -0.459000
18.056999 9.520000 0.173000
18.094000 9.472000 0.844000
17.909000 9.498000 -0.798000
18.091000 9.503000 -0.145000
18.048000 9.401000 0.500000
18.114000 9.495000 -0.471000
18.198000 9.456000 0.163000
18.229000 9.404000 0.837000
18.059000 9.441000 -0.814000
18.263000 9.457000 -0.156000
18.209999 9.349000 0.493000
18.311001 9.461000 -0.485000
18.367001 9.406000 0.154000
18.409000 9.359000 0.833000
18.292000 9.424000 -0.832000
18.414000 9.395000 -0.167000
18.356001 9.285000 0.486000
18.434000 9.385000 -0.497000
18.476000 9.324000 0.145000
