# This PCD file was generated using the MATLAB® pcwrite function
# from Computer Vision Toolbox®.
# .PCD v.7 - Point Cloud Data file format
VERSION .7
FIELDS x y z
SIZE 4 4 4
TYPE F F F
COUNT 1 1 1
WIDTH 1592
HEIGHT 1
VIEWPOINT 0 0 0 1 0 0 0
POINTS 1592
DATA ascii
15.829000 7.800000 -2.242000
11.096000 5.733000 -2.665000
12.629000 6.370000 -2.521000
14.565000 7.186000 -2.347000
11.827000 5.990000 -2.591000
13.545000 6.708000 -2.449000
15.823000 7.673000 -2.241000
11.110000 5.647000 -2.665000
12.638000 6.271000 -2.520000
14.565000 7.069000 -2.345000
11.839000 5.898000 -2.589000
13.549000 6.602000 -2.447000
15.840000 7.557000 -2.242000
11.126000 5.562000 -2.664000
12.647000 6.173000 -2.519000
14.599000 6.970000 -2.348000
11.854000 5.808000 -2.589000
13.568000 6.501000 -2.448000
15.826000 7.424000 -2.238000
11.142000 5.477000 -2.662000
12.673000 6.083000 -2.520000
14.590000 6.850000 -2.344000
11.869000 5.718000 -2.588000
13.602000 6.409000 -2.451000
15.847000 7.310000 -2.240000
11.155000 5.390000 -2.661000
12.682000 5.984000 -2.518000
14.624000 6.749000 -2.347000
11.878000 5.625000 -2.584000
13.588000 6.294000 -2.445000
15.859000 7.192000 -2.239000
11.177000 5.309000 -2.661000
12.703000 5.892000 -2.518000
14.630000 6.637000 -2.345000
11.891000 5.534000 -2.583000
13.612000 6.196000 -2.445000
15.844000 7.061000 -2.235000
11.188000 5.222000 -2.658000
12.720000 5.798000 -2.517000
14.633000 6.524000 -2.342000
11.921000 5.452000 -2.585000
13.637000 6.100000 -2.446000
15.862000 6.946000 -2.235000
11.204000 5.137000 -2.656000
12.749000 5.708000 -2.518000
14.652000 6.417000 -2.342000
11.929000 5.359000 -2.581000
13.661000 6.002000 -2.446000
15.855000 6.821000 -2.231000
11.222000 5.053000 -2.655000
12.757000 5.610000 -2.515000
14.666000 6.309000 -2.341000
11.941000 5.267000 -2.578000
13.682000 5.903000 -2.445000
15.801000 6.674000 -2.220000
11.236000 4.968000 -2.652000
12.773000 5.516000 -2.513000
14.703000 6.211000 -2.342000
11.962000 5.181000 -2.577000
13.676000 5.793000 -2.440000
15.856000 6.576000 -2.224000
11.250000 4.882000 -2.649000
12.770000 5.412000 -2.507000
14.713000 6.100000 -2.340000
11.975000 5.091000 -2.575000
13.684000 5.690000 -2.436000
15.860000 6.456000 -2.221000
11.274000 4.802000 -2.649000
12.797000 5.323000 -2.507000
14.755000 6.003000 -2.342000
11.991000 5.001000 -2.572000
13.698000 5.587000 -2.434000
15.900000 6.349000 -2.223000
11.289000 4.717000 -2.646000
12.812000 5.229000 -2.505000
14.767000 5.895000 -2.340000
12.019000 4.917000 -2.572000
13.744000 5.500000 -2.437000
15.927000 6.240000 -2.223000
11.309000 4.633000 -2.644000
12.824000 5.132000 -2.501000
14.779000 5.785000 -2.337000
12.022000 4.824000 -2.567000
13.731000 5.389000 -2.430000
15.928000 6.119000 -2.219000
11.336000 4.554000 -2.644000
12.844000 5.040000 -2.500000
14.783000 5.674000 -2.333000
12.046000 4.737000 -2.566000
13.755000 5.291000 -2.429000
15.942000 6.003000 -2.217000
11.362000 4.474000 -2.644000
12.869000 4.950000 -2.499000
14.849000 5.586000 -2.338000
12.071000 4.652000 -2.565000
13.784000 5.196000 -2.428000
16.006001 5.907000 -2.221000
11.370000 4.386000 -2.639000
12.888000 4.856000 -2.497000
14.845000 5.471000 -2.333000
12.083000 4.563000 -2.562000
13.802000 5.098000 -2.426000
16.020000 5.792000 -2.218000
11.392000 4.304000 -2.637000
12.907000 4.764000 -2.495000
14.842000 5.358000 -2.327000
12.112000 4.478000 -2.562000
13.818000 4.997000 -2.423000
16.014999 5.669000 -2.213000
11.419000 4.225000 -2.637000
12.924000 4.671000 -2.492000
14.865000 5.254000 -2.326000
12.134000 4.392000 -2.560000
13.841000 4.900000 -2.422000
16.023001 5.553000 -2.209000
11.434000 4.140000 -2.633000
12.951000 4.580000 -2.491000
14.895000 5.152000 -2.326000
12.158000 4.307000 -2.558000
13.848000 4.798000 -2.417000
16.033001 5.437000 -2.206000
11.462000 4.060000 -2.633000
12.964000 4.486000 -2.488000
14.915000 5.047000 -2.323000
12.182000 4.220000 -2.557000
13.875000 4.701000 -2.416000
16.063999 5.328000 -2.205000
11.485000 3.979000 -2.632000
12.994000 4.397000 -2.487000
14.922000 4.938000 -2.319000
12.197000 4.132000 -2.554000
13.891000 4.602000 -2.413000
16.084000 5.215000 -2.203000
11.468000 3.883000 -2.621000
13.009000 4.302000 -2.484000
14.954000 4.837000 -2.319000
12.216000 4.045000 -2.552000
13.910000 4.505000 -2.411000
16.087000 5.098000 -2.198000
11.531000 3.815000 -2.629000
13.033000 4.212000 -2.483000
14.973000 4.732000 -2.315000
12.247000 3.961000 -2.552000
13.941000 4.409000 -2.410000
16.128000 4.992000 -2.199000
11.561000 3.737000 -2.629000
13.052000 4.120000 -2.480000
14.996000 4.628000 -2.314000
12.271000 3.875000 -2.550000
13.956000 4.310000 -2.407000
16.139000 4.877000 -2.195000
11.589000 3.655000 -2.628000
13.079000 4.029000 -2.479000
15.027000 4.527000 -2.313000
12.295000 3.790000 -2.549000
13.973000 4.212000 -2.404000
16.084999 4.744000 -2.182000
11.605000 3.572000 -2.625000
13.099000 3.938000 -2.477000
15.059000 4.426000 -2.312000
12.316000 3.703000 -2.547000
14.005000 4.117000 -2.404000
16.094999 4.629000 -2.179000
11.618000 3.488000 -2.622000
13.123000 3.847000 -2.475000
15.092000 4.325000 -2.312000
12.345000 3.619000 -2.547000
14.006000 4.014000 -2.398000
16.115000 4.518000 -2.176000
11.643000 3.405000 -2.621000
13.142000 3.754000 -2.473000
15.100000 4.216000 -2.308000
12.369000 3.533000 -2.545000
14.032000 3.918000 -2.397000
16.097000 4.397000 -2.168000
11.666000 3.324000 -2.620000
13.161000 3.662000 -2.470000
15.117000 4.111000 -2.305000
12.399000 3.448000 -2.545000
14.059000 3.823000 -2.396000
16.099001 4.281000 -2.164000
11.681000 3.240000 -2.616000
13.189000 3.573000 -2.470000
15.135000 4.006000 -2.302000
12.410000 3.359000 -2.541000
14.086000 3.727000 -2.395000
16.054001 4.153000 -2.152000
11.700000 3.157000 -2.614000
13.217000 3.483000 -2.469000
15.156000 3.902000 -2.300000
12.427000 3.272000 -2.539000
14.111000 3.631000 -2.394000
16.011000 4.028000 -2.142000
11.725000 3.076000 -2.614000
13.243000 3.392000 -2.468000
15.181000 3.799000 -2.298000
12.461000 3.187000 -2.540000
14.134000 3.533000 -2.392000
15.970000 3.903000 -2.132000
11.746000 2.994000 -2.612000
13.254000 3.298000 -2.465000
15.199000 3.694000 -2.296000
12.470000 3.098000 -2.536000
14.156000 3.436000 -2.390000
15.953000 3.785000 -2.124000
11.767000 2.910000 -2.611000
13.286000 3.209000 -2.465000
15.228000 3.591000 -2.295000
12.499000 3.013000 -2.536000
14.173000 3.338000 -2.388000
16.111000 3.708000 -2.140000
11.796000 2.830000 -2.611000
13.298000 3.114000 -2.462000
15.241000 3.485000 -2.292000
12.523000 2.926000 -2.535000
14.200000 3.242000 -2.387000
16.193001 3.612000 -2.147000
11.815000 2.748000 -2.610000
13.324000 3.024000 -2.461000
15.265000 3.382000 -2.290000
12.542000 2.839000 -2.533000
14.221000 3.144000 -2.385000
16.181999 3.495000 -2.140000
11.819000 2.660000 -2.605000
13.345000 2.932000 -2.460000
15.294000 3.279000 -2.290000
12.553000 2.750000 -2.530000
14.241000 3.047000 -2.384000
16.212000 3.387000 -2.140000
11.835000 2.577000 -2.603000
13.370000 2.841000 -2.459000
15.322000 3.176000 -2.289000
12.578000 2.663000 -2.530000
14.261000 2.949000 -2.382000
16.330000 3.297000 -2.151000
11.859000 2.496000 -2.602000
13.390000 2.749000 -2.458000
15.332000 3.070000 -2.286000
12.598000 2.576000 -2.529000
14.271000 2.849000 -2.379000
16.408001 3.197000 -2.157000
11.872000 2.411000 -2.600000
13.405000 2.655000 -2.456000
15.300000 2.955000 -2.277000
12.613000 2.488000 -2.527000
14.292000 2.752000 -2.378000
16.486000 3.097000 -2.163000
11.899000 2.329000 -2.601000
13.421000 2.562000 -2.454000
15.357000 2.858000 -2.280000
12.638000 2.402000 -2.527000
14.319000 2.654000 -2.378000
16.438999 2.973000 -2.152000
11.909000 2.245000 -2.598000
13.450000 2.471000 -2.454000
15.398000 2.758000 -2.282000
12.660000 2.314000 -2.526000
14.348000 2.558000 -2.378000
16.416000 2.854000 -2.145000
11.900000 2.156000 -2.591000
13.465000 2.378000 -2.453000
15.384000 2.647000 -2.276000
12.675000 2.226000 -2.525000
14.375000 2.462000 -2.378000
16.386999 2.736000 -2.137000
11.932000 2.075000 -2.593000
13.492000 2.286000 -2.453000
15.385000 2.539000 -2.272000
12.686000 2.137000 -2.523000
14.349000 2.356000 -2.370000
16.389999 2.622000 -2.134000
11.949000 1.992000 -2.593000
13.488000 2.190000 -2.448000
15.371000 2.430000 -2.266000
12.676000 2.044000 -2.516000
14.406000 2.263000 -2.375000
16.375999 2.506000 -2.128000
11.972000 1.909000 -2.593000
13.529000 2.100000 -2.452000
15.413000 2.328000 -2.269000
12.704000 1.958000 -2.518000
14.406000 2.162000 -2.371000
16.356001 2.390000 -2.122000
11.991000 1.826000 -2.593000
13.479000 1.997000 -2.438000
15.489000 2.232000 -2.276000
12.729000 1.871000 -2.519000
14.416000 2.062000 -2.369000
16.315001 2.271000 -2.114000
11.991000 1.740000 -2.589000
13.518000 1.908000 -2.442000
15.463000 2.121000 -2.269000
12.765000 1.785000 -2.522000
14.450000 1.966000 -2.371000
16.346001 2.162000 -2.115000
12.008000 1.655000 -2.589000
13.566000 1.818000 -2.447000
15.426000 2.008000 -2.260000
12.743000 1.692000 -2.514000
14.480000 1.869000 -2.373000
16.340000 2.050000 -2.111000
12.001000 1.568000 -2.584000
13.568000 1.723000 -2.444000
15.506000 1.911000 -2.269000
12.748000 1.602000 -2.512000
14.507000 1.771000 -2.374000
16.337999 1.937000 -2.108000
12.011000 1.484000 -2.583000
13.559000 1.627000 -2.439000
15.526000 1.806000 -2.269000
12.792000 1.516000 -2.518000
14.488000 1.667000 -2.368000
16.350000 1.826000 -2.107000
12.053000 1.403000 -2.589000
13.581000 1.534000 -2.441000
15.517000 1.698000 -2.265000
12.790000 1.426000 -2.514000
14.510000 1.569000 -2.369000
16.341000 1.713000 -2.103000
12.070000 1.318000 -2.590000
13.579000 1.438000 -2.437000
15.549000 1.594000 -2.267000
12.821000 1.339000 -2.518000
14.482000 1.465000 -2.362000
16.346001 1.601000 -2.102000
12.066000 1.232000 -2.586000
13.629000 1.348000 -2.444000
15.613000 1.493000 -2.274000
12.827000 1.248000 -2.516000
14.526000 1.368000 -2.367000
16.409000 1.496000 -2.108000
12.088000 1.148000 -2.588000
13.625000 1.252000 -2.441000
15.613000 1.385000 -2.272000
12.789000 1.155000 -2.507000
14.570000 1.272000 -2.372000
16.389000 1.381000 -2.103000
12.108000 1.064000 -2.590000
13.612000 1.156000 -2.436000
15.654000 1.281000 -2.276000
12.812000 1.067000 -2.509000
14.546000 1.169000 -2.366000
16.382000 1.268000 -2.101000
12.111000 0.978000 -2.589000
13.654000 1.064000 -2.442000
15.663000 1.174000 -2.276000
12.850000 0.979000 -2.515000
14.600000 1.072000 -2.373000
16.377001 1.157000 -2.099000
12.135000 0.894000 -2.592000
13.678000 0.971000 -2.445000
15.609000 1.062000 -2.267000
12.876000 0.891000 -2.518000
14.638000 0.974000 -2.378000
16.393000 1.046000 -2.099000
12.132000 0.807000 -2.590000
13.685000 0.876000 -2.444000
15.631000 0.957000 -2.268000
12.900000 0.802000 -2.521000
14.624000 0.871000 -2.374000
16.389000 0.933000 -2.098000
12.146000 0.723000 -2.591000
13.686000 0.781000 -2.443000
15.669000 0.852000 -2.273000
12.909000 0.711000 -2.522000
14.659000 0.772000 -2.379000
16.403000 0.823000 -2.099000
12.152000 0.637000 -2.592000
13.691000 0.685000 -2.443000
15.716000 0.746000 -2.279000
12.907000 0.621000 -2.520000
14.618000 0.669000 -2.372000
16.424000 0.712000 -2.101000
12.143000 0.550000 -2.589000
13.730000 0.592000 -2.450000
15.725000 0.639000 -2.280000
12.868000 0.529000 -2.512000
14.646000 0.569000 -2.376000
16.403000 0.599000 -2.098000
12.168000 0.465000 -2.593000
13.737000 0.496000 -2.450000
15.725000 0.531000 -2.279000
12.905000 0.439000 -2.519000
14.670000 0.469000 -2.379000
16.424000 0.488000 -2.101000
12.164000 0.379000 -2.592000
13.690000 0.399000 -2.442000
15.717000 0.422000 -2.278000
12.936000 0.350000 -2.525000
14.707000 0.368000 -2.385000
16.413000 0.376000 -2.099000
12.143000 0.292000 -2.587000
13.750000 0.306000 -2.452000
15.968000 0.320000 -2.315000
12.939000 0.259000 -2.525000
14.642000 0.265000 -2.375000
16.436001 0.264000 -2.102000
12.166000 0.207000 -2.592000
13.718000 0.209000 -2.447000
15.734000 0.207000 -2.281000
12.930000 0.168000 -2.524000
14.686000 0.165000 -2.382000
16.427000 0.153000 -2.102000
12.180000 0.121000 -2.596000
13.741000 0.114000 -2.451000
15.705000 0.099000 -2.277000
12.939000 0.078000 -2.526000
14.673000 0.063000 -2.381000
16.482000 0.041000 -2.110000
12.160000 0.034000 -2.592000
13.730000 0.018000 -2.450000
15.718000 -0.007000 -2.280000
12.902000 -0.012000 -2.519000
14.667000 -0.038000 -2.381000
16.497000 -0.071000 -2.112000
12.171000 -0.051000 -2.595000
13.759000 -0.077000 -2.456000
15.925000 -0.117000 -2.311000
12.916000 -0.103000 -2.523000
14.663000 -0.139000 -2.381000
16.429001 -0.183000 -2.105000
12.154000 -0.137000 -2.593000
13.707000 -0.172000 -2.448000
15.647000 -0.223000 -2.272000
12.882000 -0.193000 -2.518000
14.649000 -0.240000 -2.380000
16.368000 -0.294000 -2.099000
12.160000 -0.224000 -2.595000
13.706000 -0.267000 -2.449000
15.551000 -0.328000 -2.260000
12.908000 -0.285000 -2.524000
14.624000 -0.342000 -2.378000
16.187000 -0.401000 -2.077000
12.140000 -0.309000 -2.592000
13.701000 -0.363000 -2.450000
15.557000 -0.435000 -2.262000
12.877000 -0.374000 -2.520000
14.605000 -0.442000 -2.376000
16.129000 -0.510000 -2.072000
12.143000 -0.396000 -2.595000
13.712000 -0.459000 -2.454000
15.569000 -0.543000 -2.266000
12.872000 -0.465000 -2.521000
14.631000 -0.544000 -2.383000
16.204000 -0.623000 -2.083000
12.095000 -0.480000 -2.587000
13.708000 -0.555000 -2.455000
15.557000 -0.649000 -2.267000
12.868000 -0.556000 -2.522000
14.621000 -0.646000 -2.383000
16.351000 -0.741000 -2.105000
12.120000 -0.567000 -2.594000
13.699000 -0.651000 -2.456000
15.590000 -0.759000 -2.274000
12.861000 -0.646000 -2.524000
14.622000 -0.747000 -2.386000
16.341000 -0.852000 -2.106000
12.094000 -0.652000 -2.591000
13.692000 -0.746000 -2.457000
15.653000 -0.869000 -2.286000
12.848000 -0.736000 -2.524000
14.630000 -0.850000 -2.390000
16.337000 -0.964000 -2.108000
12.086000 -0.738000 -2.593000
13.677000 -0.841000 -2.458000
15.784000 -0.986000 -2.308000
12.821000 -0.826000 -2.521000
14.573000 -0.948000 -2.384000
16.306000 -1.074000 -2.107000
12.090000 -0.825000 -2.597000
13.651000 -0.936000 -2.456000
15.691000 -1.089000 -2.298000
12.825000 -0.917000 -2.525000
14.580000 -1.050000 -2.388000
16.308001 -1.187000 -2.111000
12.098000 -0.912000 -2.602000
13.626000 -1.030000 -2.455000
15.644000 -1.194000 -2.294000
12.817000 -1.007000 -2.527000
14.581000 -1.152000 -2.392000
16.298000 -1.299000 -2.113000
12.067000 -0.996000 -2.598000
13.643000 -1.128000 -2.462000
15.639000 -1.303000 -2.297000
12.803000 -1.098000 -2.528000
14.574000 -1.253000 -2.395000
16.285999 -1.410000 -2.116000
12.058000 -1.082000 -2.601000
13.615000 -1.222000 -2.461000
15.753000 -1.422000 -2.318000
12.775000 -1.186000 -2.527000
14.526000 -1.352000 -2.391000
16.267000 -1.521000 -2.117000
12.035000 -1.167000 -2.600000
13.588000 -1.315000 -2.460000
15.794000 -1.536000 -2.329000
12.763000 -1.276000 -2.529000
14.538000 -1.455000 -2.397000
16.273001 -1.635000 -2.122000
12.038000 -1.254000 -2.605000
13.591000 -1.412000 -2.465000
15.672000 -1.634000 -2.315000
12.711000 -1.362000 -2.523000
14.521000 -1.555000 -2.399000
16.256001 -1.746000 -2.124000
12.007000 -1.338000 -2.603000
13.576000 -1.507000 -2.467000
15.574000 -1.732000 -2.305000
12.712000 -1.453000 -2.528000
14.497000 -1.656000 -2.400000
16.246000 -1.858000 -2.128000
12.004000 -1.425000 -2.607000
13.555000 -1.601000 -2.468000
15.549000 -1.839000 -2.307000
12.683000 -1.541000 -2.527000
14.502000 -1.759000 -2.406000
16.249001 -1.971000 -2.133000
11.973000 -1.508000 -2.605000
13.542000 -1.697000 -2.470000
15.554000 -1.949000 -2.312000
12.684000 -1.633000 -2.532000
14.404000 -1.849000 -2.395000
16.257999 -2.087000 -2.139000
11.968000 -1.594000 -2.609000
13.526000 -1.792000 -2.473000
15.527000 -2.055000 -2.314000
12.698000 -1.726000 -2.540000
14.437000 -1.957000 -2.405000
16.252001 -2.200000 -2.144000
11.935000 -1.678000 -2.608000
13.505000 -1.885000 -2.474000
15.514000 -2.163000 -2.318000
12.685000 -1.817000 -2.544000
14.434000 -2.059000 -2.411000
16.256001 -2.315000 -2.150000
11.939000 -1.765000 -2.614000
13.469000 -1.978000 -2.474000
15.489000 -2.270000 -2.320000
12.664000 -1.906000 -2.545000
14.355000 -2.150000 -2.403000
16.215000 -2.423000 -2.151000
11.906000 -1.848000 -2.613000
13.434000 -2.070000 -2.473000
15.452000 -2.374000 -2.320000
12.638000 -1.994000 -2.546000
14.372000 -2.257000 -2.412000
16.226000 -2.540000 -2.158000
11.884000 -1.933000 -2.615000
13.409000 -2.163000 -2.475000
15.388000 -2.474000 -2.317000
12.613000 -2.083000 -2.547000
14.326000 -2.353000 -2.411000
16.184999 -2.648000 -2.159000
11.875000 -2.019000 -2.619000
13.412000 -2.261000 -2.482000
15.351000 -2.579000 -2.318000
12.600000 -2.173000 -2.551000
14.283000 -2.448000 -2.410000
16.153999 -2.758000 -2.161000
11.853000 -2.103000 -2.621000
13.386000 -2.355000 -2.484000
15.307000 -2.681000 -2.318000
12.564000 -2.259000 -2.551000
14.238000 -2.544000 -2.410000
16.167000 -2.876000 -2.170000
11.842000 -2.190000 -2.626000
13.369000 -2.449000 -2.487000
15.238000 -2.779000 -2.314000
12.542000 -2.349000 -2.554000
14.222000 -2.644000 -2.414000
16.177000 -2.993000 -2.178000
11.813000 -2.273000 -2.627000
13.321000 -2.538000 -2.485000
15.207000 -2.883000 -2.316000
12.528000 -2.439000 -2.558000
14.183000 -2.741000 -2.414000
16.164000 -3.108000 -2.183000
11.794000 -2.358000 -2.630000
13.254000 -2.623000 -2.480000
15.189000 -2.990000 -2.321000
12.497000 -2.526000 -2.559000
14.082000 -2.825000 -2.404000
16.127001 -3.217000 -2.185000
11.765000 -2.441000 -2.631000
13.236000 -2.718000 -2.484000
15.122000 -3.087000 -2.318000
12.463000 -2.612000 -2.560000
14.089000 -2.930000 -2.413000
16.097000 -3.327000 -2.189000
11.741000 -2.525000 -2.633000
13.161000 -2.801000 -2.478000
15.092000 -3.192000 -2.321000
12.419000 -2.697000 -2.558000
14.038000 -3.023000 -2.412000
16.145000 -3.455000 -2.203000
11.710000 -2.607000 -2.635000
13.158000 -2.898000 -2.485000
15.050000 -3.293000 -2.323000
12.374000 -2.780000 -2.557000
14.026000 -3.125000 -2.418000
16.135000 -3.571000 -2.209000
11.668000 -2.688000 -2.633000
13.136000 -2.991000 -2.489000
15.037000 -3.401000 -2.329000
12.362000 -2.871000 -2.563000
13.911000 -3.202000 -2.406000
16.101000 -3.681000 -2.213000
11.651000 -2.773000 -2.638000
13.108000 -3.084000 -2.492000
14.956000 -3.494000 -2.324000
12.327000 -2.957000 -2.564000
13.942000 -3.314000 -2.420000
16.072001 -3.793000 -2.217000
11.613000 -2.854000 -2.638000
13.061000 -3.171000 -2.491000
14.900000 -3.591000 -2.324000
12.259000 -3.034000 -2.558000
13.924000 -3.415000 -2.425000
16.018999 -3.899000 -2.218000
11.566000 -2.932000 -2.636000
13.041000 -3.266000 -2.496000
14.885000 -3.699000 -2.330000
12.223000 -3.120000 -2.560000
13.863000 -3.504000 -2.423000
16.014000 -4.016000 -2.226000
11.539000 -3.015000 -2.639000
13.016000 -3.359000 -2.500000
14.858000 -3.804000 -2.334000
12.179000 -3.203000 -2.559000
13.819000 -3.598000 -2.425000
16.000000 -4.132000 -2.233000
11.501000 -3.095000 -2.640000
12.972000 -3.447000 -2.501000
14.819000 -3.905000 -2.337000
12.204000 -3.304000 -2.574000
13.806000 -3.700000 -2.431000
15.946000 -4.239000 -2.234000
11.491000 -3.183000 -2.647000
12.954000 -3.542000 -2.507000
14.773000 -4.006000 -2.339000
12.172000 -3.390000 -2.576000
13.758000 -3.792000 -2.431000
15.906000 -4.347000 -2.237000
11.443000 -3.260000 -2.645000
12.919000 -3.633000 -2.509000
14.747000 -4.111000 -2.343000
12.140000 -3.477000 -2.579000
13.744000 -3.894000 -2.439000
15.883000 -4.461000 -2.243000
11.420000 -3.344000 -2.650000
12.884000 -3.723000 -2.511000
14.709000 -4.213000 -2.347000
12.105000 -3.562000 -2.581000
13.694000 -3.987000 -2.439000
15.824000 -4.566000 -2.244000
11.370000 -3.421000 -2.648000
12.837000 -3.810000 -2.512000
14.672000 -4.315000 -2.350000
12.071000 -3.648000 -2.584000
13.662000 -4.083000 -2.442000
15.803000 -4.680000 -2.250000
11.341000 -3.504000 -2.651000
12.813000 -3.905000 -2.517000
14.626000 -4.415000 -2.352000
12.028000 -3.732000 -2.585000
13.629000 -4.180000 -2.447000
15.768000 -4.791000 -2.255000
11.314000 -3.586000 -2.655000
12.754000 -3.987000 -2.515000
14.589000 -4.517000 -2.356000
12.007000 -3.821000 -2.590000
13.564000 -4.267000 -2.444000
15.718000 -4.898000 -2.257000
11.255000 -3.661000 -2.652000
12.719000 -4.078000 -2.518000
14.565000 -4.624000 -2.362000
11.949000 -3.899000 -2.588000
13.566000 -4.375000 -2.454000
15.682000 -5.008000 -2.261000
11.251000 -3.751000 -2.661000
12.705000 -4.176000 -2.526000
14.533000 -4.728000 -2.366000
11.921000 -3.987000 -2.592000
13.526000 -4.470000 -2.458000
15.638000 -5.116000 -2.265000
11.222000 -3.834000 -2.665000
12.663000 -4.263000 -2.527000
14.485000 -4.827000 -2.368000
11.879000 -4.070000 -2.593000
13.497000 -4.569000 -2.462000
15.577000 -5.219000 -2.265000
11.176000 -3.912000 -2.665000
12.651000 -4.363000 -2.535000
14.446000 -4.929000 -2.372000
11.871000 -4.164000 -2.602000
13.459000 -4.664000 -2.465000
15.554000 -5.334000 -2.272000
11.160000 -3.999000 -2.672000
12.606000 -4.450000 -2.537000
14.410000 -5.033000 -2.376000
11.813000 -4.243000 -2.600000
13.428000 -4.763000 -2.470000
15.495000 -5.436000 -2.273000
11.115000 -4.076000 -2.672000
12.568000 -4.540000 -2.539000
14.376000 -5.136000 -2.380000
11.791000 -4.333000 -2.606000
13.382000 -4.856000 -2.472000
15.467000 -5.552000 -2.279000
11.088000 -4.161000 -2.677000
12.530000 -4.630000 -2.543000
14.336000 -5.237000 -2.384000
11.752000 -4.417000 -2.608000
13.357000 -4.956000 -2.478000
15.424000 -5.660000 -2.282000
11.043000 -4.238000 -2.677000
12.489000 -4.719000 -2.545000
14.290000 -5.338000 -2.386000
11.709000 -4.500000 -2.610000
13.314000 -5.050000 -2.481000
15.373000 -5.766000 -2.285000
10.998000 -4.315000 -2.678000
12.458000 -4.812000 -2.549000
14.249000 -5.440000 -2.390000
11.672000 -4.585000 -2.613000
13.286000 -5.151000 -2.486000
15.332000 -5.877000 -2.289000
10.970000 -4.399000 -2.683000
12.407000 -4.897000 -2.550000
14.233000 -5.551000 -2.397000
11.638000 -4.671000 -2.616000
13.255000 -5.249000 -2.490000
15.276000 -5.980000 -2.290000
10.948000 -4.486000 -2.689000
12.372000 -4.989000 -2.553000
14.177000 -5.648000 -2.398000
11.592000 -4.753000 -2.617000
13.200000 -5.339000 -2.491000
15.238000 -6.091000 -2.294000
10.907000 -4.565000 -2.690000
12.335000 -5.079000 -2.556000
14.165000 -5.762000 -2.407000
11.560000 -4.841000 -2.621000
13.163000 -5.437000 -2.494000
15.200000 -6.203000 -2.299000
10.871000 -4.647000 -2.693000
12.300000 -5.171000 -2.560000
14.126000 -5.865000 -2.410000
11.522000 -4.926000 -2.624000
13.133000 -5.536000 -2.499000
15.155000 -6.312000 -2.302000
10.828000 -4.725000 -2.694000
12.258000 -5.260000 -2.562000
14.097000 -5.974000 -2.416000
11.488000 -5.013000 -2.628000
13.119000 -5.644000 -2.508000
15.118000 -6.423000 -2.307000
10.795000 -4.808000 -2.698000
12.227000 -5.353000 -2.567000
14.070000 -6.082000 -2.421000
11.464000 -5.105000 -2.633000
13.064000 -5.734000 -2.508000
15.078000 -6.536000 -2.310000
10.761000 -4.891000 -2.702000
12.177000 -5.439000 -2.567000
14.025000 -6.183000 -2.424000
11.419000 -5.187000 -2.634000
13.044000 -5.839000 -2.515000
15.049000 -6.652000 -2.316000
10.727000 -4.974000 -2.705000
12.145000 -5.533000 -2.572000
13.950000 -6.273000 -2.421000
11.379000 -5.272000 -2.637000
12.993000 -5.930000 -2.515000
15.005000 -6.761000 -2.319000
10.697000 -5.058000 -2.709000
12.110000 -5.626000 -2.575000
13.948000 -6.394000 -2.431000
11.363000 -5.369000 -2.644000
12.942000 -6.024000 -2.516000
14.959000 -6.872000 -2.322000
10.649000 -5.135000 -2.709000
12.084000 -5.722000 -2.581000
13.886000 -6.487000 -2.431000
11.339000 -5.462000 -2.650000
12.898000 -6.118000 -2.518000
14.925000 -6.987000 -2.326000
10.621000 -5.221000 -2.714000
12.050000 -5.817000 -2.585000
13.872000 -6.605000 -2.438000
11.284000 -5.540000 -2.650000
12.867000 -6.219000 -2.523000
14.893000 -7.103000 -2.331000
10.577000 -5.300000 -2.715000
12.007000 -5.906000 -2.586000
13.802000 -6.695000 -2.436000
11.260000 -5.634000 -2.655000
12.825000 -6.317000 -2.525000
14.845000 -7.213000 -2.333000
10.549000 -5.387000 -2.720000
11.979000 -6.003000 -2.591000
13.757000 -6.798000 -2.438000
11.228000 -5.723000 -2.659000
12.794000 -6.419000 -2.530000
14.806000 -7.327000 -2.336000
10.516000 -5.472000 -2.723000
11.961000 -6.107000 -2.598000
13.731000 -6.911000 -2.444000
11.194000 -5.813000 -2.663000
12.756000 -6.517000 -2.532000
14.775000 -7.444000 -2.340000
10.474000 -5.551000 -2.724000
11.917000 -6.196000 -2.600000
13.676000 -7.008000 -2.444000
11.150000 -5.897000 -2.663000
12.722000 -6.620000 -2.536000
14.732000 -7.558000 -2.343000
10.447000 -5.640000 -2.730000
11.882000 -6.291000 -2.603000
13.643000 -7.117000 -2.447000
11.123000 -5.991000 -2.668000
12.684000 -6.719000 -2.539000
14.705000 -7.679000 -2.347000
10.411000 -5.724000 -2.731000
11.842000 -6.384000 -2.605000
13.613000 -7.231000 -2.452000
11.094000 -6.083000 -2.672000
12.660000 -6.826000 -2.544000
14.669000 -7.796000 -2.350000
10.379000 -5.810000 -2.735000
11.814000 -6.483000 -2.609000
13.566000 -7.333000 -2.452000
11.043000 -6.165000 -2.671000
12.615000 -6.924000 -2.545000
14.622000 -7.909000 -2.352000
10.341000 -5.892000 -2.737000
11.772000 -6.574000 -2.610000
13.533000 -7.443000 -2.456000
11.028000 -6.266000 -2.679000
12.586000 -7.030000 -2.549000
14.590000 -8.029000 -2.355000
10.303000 -5.977000 -2.739000
11.740000 -6.673000 -2.614000
13.501000 -7.556000 -2.459000
10.999000 -6.360000 -2.683000
12.553000 -7.133000 -2.552000
14.548000 -8.143000 -2.356000
10.276000 -6.067000 -2.743000
11.704000 -6.769000 -2.616000
13.470000 -7.668000 -2.462000
10.947000 -6.442000 -2.681000
12.512000 -7.235000 -2.554000
14.522000 -8.270000 -2.360000
10.241000 -6.152000 -2.745000
11.677000 -6.870000 -2.620000
13.427000 -7.774000 -2.463000
10.912000 -6.533000 -2.683000
12.485000 -7.342000 -2.557000
14.478000 -8.384000 -2.361000
10.209000 -6.241000 -2.748000
11.645000 -6.970000 -2.623000
13.395000 -7.889000 -2.466000
10.886000 -6.630000 -2.688000
12.467000 -7.456000 -2.563000
14.453000 -8.510000 -2.364000
10.184000 -6.334000 -2.753000
11.620000 -7.073000 -2.627000
13.361000 -8.002000 -2.468000
10.854000 -6.724000 -2.690000
12.437000 -7.565000 -2.566000
14.423000 -8.636000 -2.367000
10.147000 -6.419000 -2.754000
11.602000 -7.181000 -2.633000
13.331000 -8.116000 -2.470000
10.807000 -6.809000 -2.689000
12.387000 -7.661000 -2.564000
14.411000 -8.771000 -2.372000
10.108000 -6.505000 -2.755000
11.553000 -7.273000 -2.631000
13.312000 -8.241000 -2.474000
10.794000 -6.915000 -2.696000
12.363000 -7.773000 -2.568000
14.365000 -8.887000 -2.371000
10.094000 -6.605000 -2.762000
11.532000 -7.380000 -2.635000
13.285000 -8.359000 -2.477000
10.769000 -7.016000 -2.700000
12.342000 -7.889000 -2.572000
14.352000 -9.025000 -2.375000
10.049000 -6.687000 -2.761000
11.498000 -7.480000 -2.637000
13.261000 -8.480000 -2.479000
10.731000 -7.107000 -2.700000
12.308000 -7.996000 -2.573000
14.327000 -9.155000 -2.377000
10.013000 -6.775000 -2.762000
11.466000 -7.583000 -2.638000
13.239000 -8.604000 -2.482000
10.722000 -7.219000 -2.708000
12.283000 -8.110000 -2.575000
14.310000 -9.291000 -2.380000
9.990000 -6.872000 -2.766000
11.435000 -7.686000 -2.639000
13.208000 -8.723000 -2.483000
10.675000 -7.306000 -2.705000
12.264000 -8.229000 -2.579000
14.284000 -9.423000 -2.380000
9.967000 -6.969000 -2.770000
11.424000 -7.803000 -2.645000
13.191000 -8.851000 -2.486000
10.643000 -7.403000 -2.706000
12.240000 -8.345000 -2.581000
14.284000 -9.573000 -2.386000
9.937000 -7.064000 -2.772000
11.386000 -7.904000 -2.644000
13.166000 -8.975000 -2.486000
10.628000 -7.512000 -2.711000
12.215000 -8.461000 -2.583000
14.270000 -9.714000 -2.388000
9.912000 -7.160000 -2.774000
11.353000 -8.007000 -2.645000
13.165000 -9.117000 -2.492000
10.588000 -7.606000 -2.710000
12.196000 -8.583000 -2.585000
14.238000 -9.845000 -2.386000
9.880000 -7.253000 -2.775000
11.333000 -8.119000 -2.647000
13.137000 -9.240000 -2.492000
10.569000 -7.714000 -2.713000
12.177000 -8.704000 -2.587000
14.243000 -10.002000 -2.391000
9.852000 -7.350000 -2.776000
11.317000 -8.238000 -2.650000
13.134000 -9.383000 -2.496000
10.534000 -7.810000 -2.712000
12.157000 -8.826000 -2.589000
14.248000 -10.160000 -2.395000
9.828000 -7.450000 -2.779000
11.292000 -8.348000 -2.651000
13.100000 -9.503000 -2.494000
10.512000 -7.919000 -2.714000
12.131000 -8.946000 -2.589000
14.228000 -10.302000 -2.393000
9.803000 -7.549000 -2.780000
11.277000 -8.467000 -2.654000
13.093000 -9.644000 -2.496000
10.490000 -8.026000 -2.716000
12.122000 -9.077000 -2.592000
14.207000 -10.444000 -2.392000
9.783000 -7.655000 -2.783000
11.254000 -8.582000 -2.654000
13.069000 -9.774000 -2.494000
10.480000 -8.143000 -2.720000
12.112000 -9.208000 -2.594000
14.191000 -10.591000 -2.391000
9.754000 -7.752000 -2.783000
11.245000 -8.707000 -2.658000
13.059000 -9.916000 -2.496000
10.451000 -8.249000 -2.719000
12.096000 -9.337000 -2.594000
14.200000 -10.757000 -2.393000
9.731000 -7.854000 -2.784000
11.228000 -8.827000 -2.659000
13.077000 -10.079000 -2.501000
10.443000 -8.369000 -2.723000
12.088000 -9.473000 -2.596000
14.221000 -10.935000 -2.397000
9.716000 -7.966000 -2.787000
11.205000 -8.944000 -2.657000
13.058000 -10.216000 -2.498000
10.417000 -8.476000 -2.722000
12.068000 -9.600000 -2.595000
14.227000 -11.102000 -2.398000
9.702000 -8.077000 -2.790000
11.203000 -9.078000 -2.661000
13.059000 -10.369000 -2.500000
10.417000 -8.607000 -2.728000
12.061000 -9.738000 -2.595000
14.240000 -11.277000 -2.398000
9.679000 -8.182000 -2.790000
11.201000 -9.212000 -2.664000
13.052000 -10.517000 -2.499000
10.398000 -8.721000 -2.727000
12.069000 -9.890000 -2.599000
14.263000 -11.462000 -2.401000
9.662000 -8.294000 -2.791000
11.179000 -9.333000 -2.661000
13.072000 -10.689000 -2.502000
10.383000 -8.839000 -2.728000
12.057000 -10.026000 -2.598000
14.282000 -11.644000 -2.402000
9.651000 -8.410000 -2.794000
11.168000 -9.462000 -2.662000
13.080000 -10.852000 -2.503000
10.370000 -8.962000 -2.728000
12.042000 -10.162000 -2.594000
14.300000 -11.829000 -2.400000
9.629000 -8.517000 -2.792000
11.167000 -9.600000 -2.663000
13.074000 -11.004000 -2.500000
10.374000 -9.099000 -2.732000
12.061000 -10.327000 -2.599000
14.309000 -12.008000 -2.398000
9.622000 -8.641000 -2.795000
11.173000 -9.747000 -2.665000
13.073000 -11.163000 -2.497000
10.356000 -9.216000 -2.730000
12.063000 -10.477000 -2.599000
14.327000 -12.193000 -2.396000
9.611000 -8.759000 -2.796000
11.168000 -9.885000 -2.665000
13.118000 -11.362000 -2.503000
10.358000 -9.355000 -2.733000
12.078000 -10.641000 -2.599000
14.344000 -12.382000 -2.392000
9.610000 -8.887000 -2.799000
11.166000 -10.025000 -2.664000
13.117000 -11.522000 -2.498000
10.354000 -9.487000 -2.733000
12.093000 -10.808000 -2.601000
14.368000 -12.578000 -2.390000
9.599000 -9.008000 -2.797000
11.186000 -10.188000 -2.667000
13.167000 -11.730000 -2.502000
10.360000 -9.629000 -2.735000
12.099000 -10.966000 -2.599000
14.400000 -12.782000 -2.387000
9.602000 -9.143000 -2.801000
11.201000 -10.346000 -2.669000
13.173000 -11.900000 -2.498000
10.365000 -9.773000 -2.735000
12.107000 -11.128000 -2.596000
14.441000 -12.997000 -2.384000
9.594000 -9.267000 -2.800000
11.208000 -10.499000 -2.668000
13.206000 -12.095000 -2.497000
10.367000 -9.913000 -2.735000
12.136000 -11.310000 -2.598000
14.488000 -13.219000 -2.383000
9.590000 -9.397000 -2.799000
11.225000 -10.662000 -2.668000
13.229000 -12.283000 -2.492000
10.387000 -10.072000 -2.739000
12.162000 -11.490000 -2.597000
14.547000 -13.453000 -2.381000
9.606000 -9.546000 -2.804000
11.230000 -10.815000 -2.666000
13.256000 -12.476000 -2.489000
10.397000 -10.223000 -2.738000
12.201000 -11.685000 -2.597000
14.605000 -13.690000 -2.377000
9.604000 -9.678000 -2.802000
11.260000 -10.991000 -2.667000
13.297000 -12.683000 -2.487000
10.413000 -10.381000 -2.739000
12.204000 -11.847000 -2.591000
14.664000 -13.931000 -2.374000
9.619000 -9.829000 -2.804000
11.265000 -11.145000 -2.661000
13.340000 -12.895000 -2.482000
10.411000 -10.519000 -2.734000
12.238000 -12.039000 -2.589000
14.709000 -14.157000 -2.366000
9.632000 -9.978000 -2.805000
11.308000 -11.338000 -2.665000
13.397000 -13.122000 -2.481000
10.449000 -10.700000 -2.738000
12.279000 -12.239000 -2.586000
14.771000 -14.404000 -2.358000
9.642000 -10.123000 -2.804000
11.324000 -11.504000 -2.660000
13.459000 -13.354000 -2.479000
10.455000 -10.851000 -2.733000
12.318000 -12.439000 -2.584000
14.847000 -14.667000 -2.354000
9.666000 -10.284000 -2.805000
11.355000 -11.686000 -2.656000
13.500000 -13.568000 -2.470000
10.479000 -11.018000 -2.732000
12.358000 -12.640000 -2.580000
14.921000 -14.928000 -2.346000
9.680000 -10.436000 -2.804000
11.381000 -11.865000 -2.652000
13.591000 -13.834000 -2.471000
10.505000 -11.189000 -2.729000
12.418000 -12.863000 -2.577000
15.031000 -15.228000 -2.341000
9.699000 -10.592000 -2.802000
11.415000 -12.050000 -2.648000
13.645000 -14.062000 -2.462000
10.524000 -11.352000 -2.724000
12.466000 -13.075000 -2.572000
15.127000 -15.516000 -2.333000
9.732000 -10.765000 -2.803000
11.467000 -12.257000 -2.645000
13.718000 -14.314000 -2.454000
10.574000 -11.548000 -2.726000
12.514000 -13.287000 -2.565000
15.232000 -15.816000 -2.326000
9.757000 -10.928000 -2.801000
11.516000 -12.461000 -2.642000
13.808000 -14.581000 -2.449000
10.616000 -11.737000 -2.722000
12.599000 -13.541000 -2.562000
15.332000 -16.112000 -2.314000
9.785000 -11.094000 -2.798000
11.569000 -12.668000 -2.638000
13.915000 -14.871000 -2.446000
10.645000 -11.911000 -2.716000
12.662000 -13.771000 -2.556000
15.438000 -16.416000 -2.301000
9.817000 -11.264000 -2.793000
11.627000 -12.882000 -2.632000
14.007000 -15.145000 -2.435000
10.675000 -12.086000 -2.708000
12.738000 -14.014000 -2.550000
15.572000 -16.752001 -2.292000
9.861000 -11.449000 -2.793000
11.693000 -13.106000 -2.628000
14.128000 -15.452000 -2.430000
10.734000 -12.292000 -2.705000
12.821000 -14.266000 -2.541000
15.704000 -17.089001 -2.278000
9.900000 -11.624000 -2.788000
11.755000 -13.322000 -2.621000
14.224000 -15.732000 -2.419000
10.787000 -12.493000 -2.700000
12.906000 -14.522000 -2.534000
15.829000 -17.415001 -2.262000
9.947000 -11.810000 -2.783000
11.837000 -13.563000 -2.615000
14.354000 -16.051001 -2.408000
10.861000 -12.715000 -2.698000
13.002000 -14.788000 -2.525000
15.976000 -17.771000 -2.247000
9.986000 -11.984000 -2.776000
11.935000 -13.821000 -2.612000
14.480000 -16.363001 -2.396000
10.921000 -12.919000 -2.689000
13.117000 -15.076000 -2.517000
16.160000 -18.167999 -2.232000
10.066000 -12.206000 -2.778000
11.989000 -14.027000 -2.597000
14.616000 -16.688999 -2.385000
10.984000 -13.126000 -2.681000
13.228000 -15.359000 -2.507000
16.315001 -18.531000 -2.212000
10.115000 -12.388000 -2.767000
12.102000 -14.299000 -2.591000
14.767000 -17.033001 -2.370000
11.073000 -13.364000 -2.676000
13.352000 -15.655000 -2.497000
16.528000 -18.961000 -2.198000
10.180000 -12.588000 -2.761000
12.213000 -14.568000 -2.584000
14.912000 -17.367001 -2.354000
11.183000 -13.623000 -2.673000
13.478000 -15.953000 -2.483000
16.778999 -19.437000 -2.184000
10.238000 -12.774000 -2.751000
12.316000 -14.827000 -2.574000
15.092000 -17.742001 -2.341000
11.258000 -13.839000 -2.661000
13.628000 -16.278000 -2.473000
16.990000 -19.865999 -2.160000
10.338000 -13.011000 -2.747000
12.442000 -15.109000 -2.563000
15.255000 -18.093000 -2.321000
11.367000 -14.090000 -2.654000
13.793000 -16.618000 -2.463000
17.223000 -20.320000 -2.138000
10.431000 -13.235000 -2.742000
12.556000 -15.376000 -2.549000
15.439000 -18.469999 -2.300000
11.474000 -14.338000 -2.643000
13.979000 -16.982000 -2.451000
17.496000 -20.819000 -2.117000
10.535000 -13.469000 -2.736000
12.702000 -15.677000 -2.539000
15.665000 -18.895000 -2.285000
11.582000 -14.583000 -2.631000
14.126000 -17.296000 -2.431000
17.781000 -21.332001 -2.090000
10.641000 -13.701000 -2.727000
12.846000 -15.971000 -2.524000
15.895000 -19.320000 -2.265000
11.716000 -14.854000 -2.622000
14.317000 -17.659000 -2.417000
18.058001 -21.834999 -2.062000
10.729000 -13.906000 -2.713000
13.012000 -16.288000 -2.511000
16.129999 -19.747999 -2.240000
11.818000 -15.081000 -2.602000
14.507000 -18.016001 -2.396000
18.396000 -22.405001 -2.035000
10.840000 -14.133000 -2.701000
13.184000 -16.610001 -2.498000
16.417000 -20.237000 -2.222000
11.981000 -15.380000 -2.594000
14.709000 -18.382000 -2.375000
18.707001 -22.941000 -1.998000
10.983000 -14.395000 -2.692000
13.372000 -16.944000 -2.482000
16.701000 -20.716999 -2.198000
12.141000 -15.669000 -2.582000
14.936000 -18.775000 -2.356000
19.125999 -23.605000 -1.971000
11.110000 -14.630000 -2.679000
13.566000 -17.278000 -2.465000
16.997999 -21.208000 -2.169000
12.312000 -15.963000 -2.567000
15.198000 -19.205000 -2.336000
19.434000 -24.127001 -1.927000
11.264000 -14.892000 -2.669000
13.758000 -17.606001 -2.445000
17.320000 -21.723000 -2.143000
12.494000 -16.266001 -2.552000
15.466000 -19.636000 -2.314000
19.957001 -24.909000 -1.896000
11.410000 -15.136000 -2.652000
13.982000 -17.965000 -2.424000
17.632999 -22.219000 -2.109000
12.690000 -16.579000 -2.539000
15.722000 -20.044001 -2.288000
20.422001 -25.612000 -1.857000
11.581000 -15.403000 -2.639000
14.232000 -18.348000 -2.407000
18.010000 -22.790001 -2.076000
12.865000 -16.854000 -2.515000
16.048000 -20.531000 -2.265000
20.924000 -26.351999 -1.815000
11.763000 -15.677000 -2.627000
14.460000 -18.695000 -2.383000
18.424999 -23.396999 -2.047000
13.099000 -17.198000 -2.500000
16.367001 -21.000999 -2.238000
21.382999 -27.028999 -1.759000
11.950000 -15.945000 -2.609000
14.715000 -19.066000 -2.356000
18.877001 -24.041000 -2.014000
13.303000 -17.493000 -2.478000
16.708000 -21.488001 -2.211000
22.045000 -27.954000 -1.718000
12.133000 -16.201000 -2.590000
14.997000 -19.459999 -2.332000
19.239000 -24.559000 -1.964000
13.538000 -17.816000 -2.455000
17.047001 -21.959999 -2.176000
22.705999 -28.864000 -1.669000
12.344000 -16.482000 -2.574000
15.320000 -19.899000 -2.312000
19.747999 -25.254999 -1.928000
13.809000 -18.174000 -2.437000
17.422001 -22.466000 -2.143000
23.474001 -29.896000 -1.616000
12.582000 -16.785999 -2.557000
15.612000 -20.282000 -2.279000
20.278999 -25.961000 -1.887000
14.040000 -18.471001 -2.409000
17.822001 -22.990000 -2.110000
24.218000 -30.882000 -1.558000
12.784000 -17.028999 -2.531000
15.957000 -20.719999 -2.253000
20.795000 -26.634001 -1.836000
14.332000 -18.832001 -2.386000
18.287001 -23.584999 -2.076000
24.954000 -31.844000 -1.490000
13.027000 -17.316000 -2.512000
16.301001 -21.146000 -2.223000
21.351999 -27.343000 -1.786000
14.613000 -19.166000 -2.359000
18.702000 -24.100000 -2.033000
25.591999 -32.659000 -1.406000
13.265000 -17.583000 -2.486000
16.669001 -21.587999 -2.189000
22.037001 -28.198999 -1.740000
14.929000 -19.532000 -2.335000
19.108999 -24.587000 -1.987000
26.535999 -33.844002 -1.337000
13.536000 -17.882000 -2.465000
17.039000 -22.016001 -2.154000
22.774000 -29.103001 -1.688000
15.274000 -19.921000 -2.308000
19.657000 -25.238001 -1.947000
26.601999 -33.888000 -1.216000
13.819000 -18.181999 -2.444000
17.459000 -22.493000 -2.122000
23.472000 -29.936001 -1.629000
15.576000 -20.240999 -2.274000
20.139000 -25.789000 -1.897000
26.660999 -33.901001 -1.091000
14.108000 -18.474001 -2.417000
17.858999 -22.926001 -2.080000
24.195000 -30.778000 -1.566000
15.927000 -20.608000 -2.245000
20.752001 -26.486000 -1.856000
26.690001 -33.860001 -0.968000
14.398000 -18.757999 -2.390000
18.327999 -23.431999 -2.044000
24.940001 -31.624001 -1.494000
16.297001 -20.983999 -2.212000
21.354000 -27.148001 -1.805000
25.597000 -32.376999 -0.812000
14.711000 -19.056000 -2.366000
18.791000 -23.915001 -2.005000
25.785999 -32.577000 -1.424000
16.694000 -21.378000 -2.181000
22.055000 -27.914000 -1.759000
25.631001 -32.304001 -0.693000
15.025000 -19.337999 -2.335000
19.322001 -24.461000 -1.965000
25.652000 -32.268002 -1.300000
17.052999 -21.711000 -2.144000
22.587999 -28.448999 -1.697000
27.738001 -34.816002 -0.624000
15.368000 -19.646000 -2.308000
19.801001 -24.924000 -1.919000
27.454000 -34.367001 -1.262000
17.507000 -22.143999 -2.112000
23.337999 -29.229000 -1.641000
27.937000 -34.905998 -0.505000
15.698000 -19.923000 -2.278000
20.247999 -25.329000 -1.867000
0.000000 0.000000 0.000000
17.903000 -22.490000 -2.072000
24.000999 -29.879999 -1.577000
28.107000 -34.935001 -0.381000
16.054001 -20.218000 -2.246000
20.787001 -25.830000 -1.817000
29.695000 -36.756001 -1.102000
18.295000 -22.812000 -2.030000
24.770000 -30.638000 -1.517000
28.374001 -35.067001 -0.262000
16.438999 -20.534000 -2.218000
21.302999 -26.282000 -1.763000
29.976000 -36.869999 -0.977000
18.759001 -23.209000 -1.989000
25.631001 -31.482000 -1.453000
28.649000 -35.188000 -0.145000
16.799000 -20.806000 -2.185000
21.920000 -26.839001 -1.717000
28.723000 -35.090000 -0.813000
19.222000 -23.587999 -1.949000
26.487000 -32.296001 -1.385000
28.903000 -35.264000 -0.022000
17.215000 -21.129999 -2.154000
22.601000 -27.451000 -1.667000
29.058001 -35.242001 -0.702000
19.681999 -23.945000 -1.907000
27.398001 -33.147999 -1.315000
29.191000 -35.366001 0.096000
17.604000 -21.409000 -2.120000
23.245001 -27.999001 -1.613000
29.466999 -35.463001 -0.587000
20.195000 -24.349001 -1.864000
28.118000 -33.737000 -1.231000
29.500999 -35.473000 0.213000
17.997999 -21.679001 -2.086000
23.865000 -28.497999 -1.555000
29.832001 -35.617001 -0.474000
20.667000 -24.688000 -1.817000
28.830999 -34.298000 -1.144000
29.322001 -34.977001 0.328000
18.368999 -21.906000 -2.044000
24.646999 -29.160999 -1.502000
30.243000 -35.803001 -0.365000
21.219000 -25.105000 -1.776000
28.393000 -33.480000 -1.013000
30.351000 -35.905998 0.454000
18.768000 -22.155001 -2.006000
25.361000 -29.726000 -1.443000
30.052000 -35.262001 -0.245000
21.730000 -25.454000 -1.726000
30.488001 -35.615002 -0.968000
30.513000 -35.785000 0.567000
19.219999 -22.452000 -1.974000
26.065001 -30.256001 -1.381000
30.634001 -35.618000 -0.136000
22.219999 -25.764999 -1.675000
30.726000 -35.550999 -0.860000
30.673000 -35.647999 0.682000
19.621000 -22.674999 -1.931000
26.839001 -30.841000 -1.317000
30.778000 -35.448002 -0.029000
22.743000 -26.096001 -1.627000
30.865999 -35.362999 -0.751000
30.767000 -35.424000 0.790000
20.018999 -22.884001 -1.889000
27.400999 -31.166000 -1.243000
30.893000 -35.233002 0.082000
23.263000 -26.407000 -1.572000
30.957001 -35.104000 -0.642000
30.829000 -35.152000 0.892000
20.450001 -23.115000 -1.851000
28.302999 -31.855000 -1.182000
30.961000 -34.959000 0.186000
23.907000 -26.844000 -1.527000
31.021000 -34.814999 -0.537000
30.926001 -34.912998 0.998000
20.917999 -23.375000 -1.812000
29.149000 -32.452000 -1.114000
31.837999 -35.577999 0.292000
24.518999 -27.225000 -1.480000
31.191999 -34.637001 -0.436000
31.625999 -35.341000 1.119000
21.375000 -23.613001 -1.772000
29.809000 -32.824001 -1.039000
31.681000 -35.028000 0.394000
24.964001 -27.403000 -1.418000
28.884001 -31.722000 -0.310000
32.641998 -36.092999 1.249000
21.820999 -23.825001 -1.732000
0.000000 0.000000 0.000000
0.000000 0.000000 0.000000
25.541000 -27.716000 -1.365000
29.004999 -31.504000 -0.221000
32.881001 -35.966000 1.356000
22.256001 -24.009001 -1.689000
29.160000 -31.389999 -0.828000
34.703999 -37.541000 0.635000
26.365999 -28.278999 -1.323000
29.139000 -31.296000 -0.135000
32.959000 -35.658001 1.450000
22.737000 -24.233999 -1.650000
0.000000 0.000000 0.000000
34.747002 -37.165001 0.737000
26.948999 -28.559000 -1.267000
29.309999 -31.115000 -0.051000
0.000000 0.000000 0.000000
23.124001 -24.349001 -1.603000
0.000000 0.000000 0.000000
36.126999 -38.202000 0.863000
27.558001 -28.855000 -1.213000
29.855000 -31.326000 0.030000
34.129002 -36.096001 1.680000
23.642000 -24.584999 -1.565000
0.000000 0.000000 0.000000
0.000000 0.000000 0.000000
28.421000 -29.400000 -1.168000
30.768999 -31.906000 0.112000
36.856998 -38.533001 1.904000
24.100000 -24.750999 -1.524000
0.000000 0.000000 0.000000
0.000000 0.000000 0.000000
29.024000 -29.652000 -1.111000
0.000000 0.000000 0.000000
37.658001 -38.907001 2.030000
24.422001 -24.768000 -1.474000
0.000000 0.000000 0.000000
0.000000 0.000000 0.000000
29.386000 -29.650000 -1.046000
0.000000 0.000000 0.000000
38.346001 -39.146000 2.156000
25.134001 -25.165001 -1.446000
0.000000 0.000000 0.000000
0.000000 0.000000 0.000000
29.868999 -29.761999 -0.986000
31.052000 -31.042999 0.343000
38.833000 -39.167000 2.265000
25.510000 -25.218000 -1.400000
31.591000 -31.250000 -0.295000
0.000000 0.000000 0.000000
30.791000 -30.288000 -0.939000
30.104000 -29.718000 0.401000
38.688999 -38.543999 2.332000
26.016001 -25.388000 -1.361000
31.812000 -31.075001 -0.224000
39.222000 -38.578999 1.487000
0.000000 0.000000 0.000000
30.240999 -29.481001 0.467000
39.140999 -38.508999 2.438000
26.615999 -25.634001 -1.327000
33.116001 -31.934000 -0.159000
37.539001 -36.460999 1.494000
0.000000 0.000000 0.000000
31.851999 -30.662001 0.558000
0.000000 0.000000 0.000000
26.913000 -25.583000 -1.278000
30.427999 -28.968000 -0.082000
33.146999 -31.787001 1.384000
32.421001 -30.677999 -0.765000
0.000000 0.000000 0.000000
40.662998 -39.013000 2.677000
27.544001 -25.841999 -1.246000
33.763000 -31.731001 -0.024000
33.860001 -32.057999 1.475000
33.263000 -31.066999 -0.716000
32.136002 -30.145000 0.686000
40.861000 -38.698002 2.757000
27.830000 -25.761000 -1.197000
33.848999 -31.395000 0.042000
37.916000 -35.439999 1.716000
33.644001 -31.011000 -0.657000
38.036999 -35.220001 0.879000
41.021999 -38.352001 2.831000
28.580999 -26.106001 -1.171000
38.194000 -34.963001 0.117000
38.051998 -35.099998 1.784000
34.327999 -31.219999 -0.603000
32.307999 -29.518999 0.802000
41.129002 -37.955002 2.899000
28.903999 -26.049999 -1.127000
38.353001 -34.647999 0.184000
38.119999 -34.705002 1.845000
32.483002 -29.150999 -0.512000
32.403999 -29.219999 0.857000
41.266998 -37.578999 2.967000
29.344000 -26.087000 -1.087000
38.466999 -34.285000 0.250000
38.275002 -34.389000 1.908000
32.438000 -28.722000 -0.454000
38.500999 -34.259998 1.077000
41.465000 -37.264000 3.034000
29.702000 -26.049999 -1.047000
32.730999 -28.785999 0.265000
38.437000 -34.070999 1.969000
32.737999 -28.593000 -0.404000
38.582001 -33.868999 1.135000
41.664001 -36.946999 3.100000
30.118000 -26.058001 -1.009000
38.717999 -33.596001 0.371000
38.558998 -33.726002 2.026000
36.752998 -31.667999 -0.395000
38.679001 -33.500000 1.191000
47.855999 -41.862000 3.616000
30.476000 -26.004000 -0.970000
38.854000 -33.252998 0.429000
38.698002 -33.394001 2.080000
37.199001 -31.617001 -0.344000
38.807999 -33.160000 1.246000
42.101002 -36.333000 3.226000
31.091000 -26.166000 -0.941000
39.007999 -32.932999 0.483000
38.839001 -33.056000 2.132000
38.087002 -31.924999 -0.297000
38.941002 -32.816002 1.298000
42.133999 -35.872002 3.271000
31.521999 -26.165001 -0.906000
39.125000 -32.581001 0.534000
38.939999 -32.693001 2.179000
38.416000 -31.759001 -0.247000
39.088001 -32.491001 1.348000
42.325001 -35.535999 3.325000
31.829000 -26.049999 -0.869000
39.240002 -32.226002 0.587000
39.087002 -32.368999 2.227000
39.351002 -32.084000 -0.203000
39.201000 -32.137001 1.394000
42.473000 -35.171001 3.374000
32.216999 -26.000999 -0.836000
39.390999 -31.902000 0.632000
39.191002 -32.001999 2.270000
39.466000 -31.726000 -0.154000
39.346001 -31.809000 1.442000
42.591000 -34.783001 3.417000
32.652000 -25.985001 -0.806000
39.481998 -31.533001 0.676000
39.381001 -31.712000 2.315000
39.661999 -31.440001 -0.109000
39.452000 -31.448999 1.482000
42.785999 -34.451000 3.465000
32.832001 -25.756001 -0.770000
39.648998 -31.222000 0.722000
39.451000 -31.327000 2.351000
39.777000 -31.090000 -0.066000
39.611000 -31.136000 1.523000
42.924999 -34.081001 3.506000
33.108002 -25.608000 -0.737000
39.777000 -30.882000 0.760000
39.601002 -30.999001 2.390000
39.939999 -30.771999 -0.025000
39.749001 -30.801001 1.564000
43.131001 -33.763000 3.549000
33.708000 -25.704000 -0.714000
39.881001 -30.528000 0.798000
39.710999 -30.649000 2.425000
40.062000 -30.430000 0.013000
39.835999 -30.431000 1.596000
43.243999 -33.366001 3.583000
33.769001 -25.379000 -0.680000
40.015999 -30.193001 0.837000
39.889000 -30.351000 2.462000
40.160999 -30.072001 0.050000
39.974998 -30.105000 1.631000
43.384998 -33.000000 3.618000
34.144001 -25.295000 -0.654000
40.185001 -29.886999 0.870000
39.985001 -29.983999 2.491000
40.271000 -29.718000 0.085000
40.118000 -29.778000 1.666000
60.358002 -45.254002 5.061000
34.563000 -25.238001 -0.629000
