# This PCD file was generated using the MATLAB® pcwrite function
# from Computer Vision Toolbox®.
# .PCD v.7 - Point Cloud Data file format
VERSION .7
FIELDS x y z
SIZE 4 4 4
TYPE F F F
COUNT 1 1 1
WIDTH 1598
HEIGHT 1
VIEWPOINT 0 0 0 1 0 0 0
POINTS 1598
DATA ascii
9.706000 8.533000 -2.786000
10.193000 8.687000 -2.412000
10.112000 8.387000 -1.921000
10.216000 8.779000 -2.664000
12.074000 10.089000 -2.584000
14.208000 11.578000 -2.374000
9.701000 8.414000 -2.785000
11.177000 9.398000 -2.648000
13.049000 10.681000 -2.486000
10.306000 8.737000 -2.688000
12.049000 9.933000 -2.582000
14.175000 11.397000 -2.376000
9.705000 8.302000 -2.786000
11.167000 9.263000 -2.649000
13.022000 10.517000 -2.487000
10.407000 8.702000 -2.716000
12.032000 9.786000 -2.582000
9.451000 7.498000 -1.589000
9.704000 8.186000 -2.783000
11.162000 9.132000 -2.648000
9.482000 7.554000 -1.813000
10.408000 8.583000 -2.716000
12.026000 9.648000 -2.584000
9.485000 7.423000 -1.599000
9.716000 8.081000 -2.786000
11.166000 9.011000 -2.650000
9.499000 7.464000 -1.819000
10.409000 8.464000 -2.714000
9.503000 7.518000 -2.043000
9.513000 7.343000 -1.607000
9.716000 7.968000 -2.783000
11.173000 8.890000 -2.653000
9.527000 7.383000 -1.828000
10.423000 8.356000 -2.718000
9.515000 7.424000 -2.046000
9.607000 7.314000 -1.626000
9.724000 7.860000 -2.782000
9.560000 7.500000 -2.269000
9.571000 7.314000 -1.837000
10.407000 8.225000 -2.711000
9.577000 7.367000 -2.061000
9.752000 7.320000 -1.653000
9.733000 7.754000 -2.781000
9.599000 7.424000 -2.277000
9.717000 7.322000 -1.867000
10.135000 7.895000 -2.637000
9.742000 7.388000 -2.095000
14.073000 10.415000 -2.388000
9.687000 7.606000 -2.764000
9.861000 7.517000 -2.338000
12.973000 9.636000 -2.494000
9.653000 7.411000 -2.510000
12.020000 8.986000 -2.585000
14.059000 10.259000 -2.388000
9.648000 7.464000 -2.748000
11.182000 8.401000 -2.649000
12.965000 9.493000 -2.492000
10.446000 7.904000 -2.713000
12.009000 8.848000 -2.582000
14.064000 10.115000 -2.392000
9.705000 7.396000 -2.759000
11.195000 8.289000 -2.649000
12.971000 9.361000 -2.493000
10.464000 7.800000 -2.712000
12.022000 8.729000 -2.582000
14.063000 9.968000 -2.392000
9.799000 7.358000 -2.781000
11.199000 8.170000 -2.648000
12.972000 9.225000 -2.494000
10.473000 7.692000 -2.711000
12.030000 8.607000 -2.582000
14.067000 9.827000 -2.393000
9.809000 7.254000 -2.777000
11.216000 8.060000 -2.647000
12.982000 9.096000 -2.493000
10.493000 7.591000 -2.711000
12.037000 8.485000 -2.581000
14.056000 9.674000 -2.392000
9.842000 7.168000 -2.781000
11.229000 7.950000 -2.646000
12.986000 8.966000 -2.492000
10.521000 7.496000 -2.713000
12.044000 8.362000 -2.579000
14.057000 9.532000 -2.390000
9.851000 7.066000 -2.777000
11.240000 7.837000 -2.645000
12.996000 8.838000 -2.493000
10.530000 7.389000 -2.710000
12.072000 8.256000 -2.581000
14.067000 9.397000 -2.391000
9.880000 6.977000 -2.777000
11.269000 7.738000 -2.646000
12.997000 8.706000 -2.489000
10.551000 7.290000 -2.709000
12.087000 8.141000 -2.581000
14.079000 9.264000 -2.392000
9.888000 6.874000 -2.773000
11.277000 7.626000 -2.643000
13.024000 8.592000 -2.491000
10.562000 7.185000 -2.705000
12.095000 8.022000 -2.578000
14.080000 9.123000 -2.389000
9.913000 6.784000 -2.772000
11.301000 7.524000 -2.643000
13.030000 8.464000 -2.490000
10.572000 7.079000 -2.702000
12.120000 7.915000 -2.578000
14.087000 8.989000 -2.388000
9.931000 6.689000 -2.769000
11.314000 7.415000 -2.640000
13.030000 8.333000 -2.485000
10.599000 6.987000 -2.702000
12.130000 7.799000 -2.576000
14.099000 8.857000 -2.387000
9.962000 6.603000 -2.770000
11.339000 7.315000 -2.639000
13.037000 8.209000 -2.482000
10.626000 6.893000 -2.700000
12.149000 7.688000 -2.574000
14.107000 8.724000 -2.384000
9.980000 6.509000 -2.767000
11.361000 7.213000 -2.639000
13.060000 8.094000 -2.482000
10.647000 6.796000 -2.699000
12.167000 7.578000 -2.572000
14.144000 8.611000 -2.387000
10.000000 6.417000 -2.763000
11.384000 7.112000 -2.636000
13.079000 7.977000 -2.480000
10.665000 6.698000 -2.696000
12.185000 7.468000 -2.570000
14.148000 8.477000 -2.384000
10.027000 6.329000 -2.762000
11.406000 7.012000 -2.634000
13.118000 7.874000 -2.482000
10.692000 6.606000 -2.694000
12.205000 7.360000 -2.567000
14.156000 8.346000 -2.380000
10.058000 6.245000 -2.762000
11.417000 6.904000 -2.630000
13.135000 7.757000 -2.480000
10.737000 6.525000 -2.697000
12.240000 7.262000 -2.568000
14.173000 8.222000 -2.378000
10.083000 6.157000 -2.759000
11.441000 6.805000 -2.628000
13.150000 7.640000 -2.476000
10.746000 6.423000 -2.691000
12.262000 7.156000 -2.566000
14.187000 8.096000 -2.376000
10.110000 6.070000 -2.757000
11.460000 6.705000 -2.624000
13.171000 7.527000 -2.474000
10.777000 6.334000 -2.690000
12.286000 7.051000 -2.563000
14.218000 7.980000 -2.374000
10.135000 5.983000 -2.755000
11.496000 6.613000 -2.625000
13.199000 7.418000 -2.473000
10.799000 6.240000 -2.687000
12.319000 6.953000 -2.563000
14.225000 7.853000 -2.370000
10.167000 5.899000 -2.753000
11.509000 6.509000 -2.619000
13.230000 7.311000 -2.472000
10.821000 6.147000 -2.684000
12.345000 6.850000 -2.561000
14.270000 7.746000 -2.372000
10.201000 5.817000 -2.753000
11.548000 6.421000 -2.619000
13.264000 7.207000 -2.471000
10.850000 6.058000 -2.681000
12.380000 6.752000 -2.560000
14.282000 7.622000 -2.368000
10.217000 5.726000 -2.748000
11.584000 6.330000 -2.620000
13.283000 7.094000 -2.468000
10.875000 5.967000 -2.679000
12.390000 6.642000 -2.554000
14.305000 7.504000 -2.364000
10.252000 5.645000 -2.746000
11.602000 6.230000 -2.614000
13.306000 6.984000 -2.465000
10.918000 5.886000 -2.680000
12.441000 6.554000 -2.557000
14.338000 7.391000 -2.363000
10.280000 5.560000 -2.744000
11.644000 6.144000 -2.615000
13.353000 6.887000 -2.465000
10.941000 5.794000 -2.675000
12.448000 6.442000 -2.549000
14.365000 7.277000 -2.361000
10.302000 5.473000 -2.740000
11.661000 6.044000 -2.610000
13.353000 6.766000 -2.458000
10.964000 5.703000 -2.672000
12.498000 6.355000 -2.551000
14.401000 7.167000 -2.359000
10.340000 5.394000 -2.739000
11.690000 5.951000 -2.607000
13.403000 6.672000 -2.459000
10.993000 5.615000 -2.669000
12.509000 6.246000 -2.545000
14.408000 7.043000 -2.354000
10.360000 5.306000 -2.735000
11.725000 5.861000 -2.606000
13.430000 6.565000 -2.456000
11.026000 5.530000 -2.667000
12.554000 6.155000 -2.545000
14.468000 6.946000 -2.356000
10.393000 5.225000 -2.733000
11.752000 5.767000 -2.603000
13.477000 6.468000 -2.457000
11.069000 5.449000 -2.668000
12.578000 6.055000 -2.541000
14.500000 6.834000 -2.353000
10.421000 5.142000 -2.730000
11.782000 5.675000 -2.600000
13.517000 6.369000 -2.456000
11.084000 5.355000 -2.662000
12.594000 5.951000 -2.536000
14.525000 6.719000 -2.350000
10.445000 5.057000 -2.725000
11.811000 5.584000 -2.597000
13.560000 6.271000 -2.455000
11.111000 5.267000 -2.658000
12.665000 5.872000 -2.541000
14.556000 6.609000 -2.347000
10.486000 4.981000 -2.726000
11.847000 5.495000 -2.596000
13.584000 6.164000 -2.451000
11.140000 5.181000 -2.655000
12.672000 5.765000 -2.534000
14.583000 6.497000 -2.343000
10.514000 4.898000 -2.722000
11.868000 5.399000 -2.591000
13.609000 6.058000 -2.447000
11.170000 5.095000 -2.653000
12.706000 5.669000 -2.532000
14.619000 6.389000 -2.341000
10.534000 4.812000 -2.717000
11.903000 5.312000 -2.589000
13.626000 5.949000 -2.441000
11.208000 5.013000 -2.652000
12.727000 5.568000 -2.526000
14.660000 6.283000 -2.339000
10.572000 4.734000 -2.717000
11.934000 5.221000 -2.586000
13.646000 5.841000 -2.436000
11.228000 4.923000 -2.646000
12.767000 5.477000 -2.525000
14.694000 6.175000 -2.336000
10.602000 4.653000 -2.714000
11.970000 5.133000 -2.584000
13.692000 5.746000 -2.436000
11.267000 4.841000 -2.646000
12.793000 5.379000 -2.522000
14.724000 6.064000 -2.333000
10.627000 4.570000 -2.710000
12.008000 5.046000 -2.583000
13.702000 5.635000 -2.428000
11.295000 4.755000 -2.642000
12.820000 5.282000 -2.517000
14.766000 5.960000 -2.331000
10.661000 4.491000 -2.709000
12.018000 4.947000 -2.576000
13.754000 5.542000 -2.429000
11.317000 4.667000 -2.637000
12.847000 5.185000 -2.513000
14.804000 5.853000 -2.328000
10.689000 4.409000 -2.705000
12.058000 4.861000 -2.574000
13.771000 5.435000 -2.423000
11.347000 4.582000 -2.635000
12.862000 5.083000 -2.508000
14.841000 5.747000 -2.326000
10.718000 4.328000 -2.702000
12.083000 4.770000 -2.570000
13.810000 5.336000 -2.421000
11.382000 4.499000 -2.633000
12.909000 4.994000 -2.507000
14.882000 5.642000 -2.324000
10.746000 4.247000 -2.699000
12.119000 4.682000 -2.569000
13.838000 5.234000 -2.418000
11.422000 4.418000 -2.632000
12.941000 4.900000 -2.504000
14.935000 5.542000 -2.323000
10.784000 4.169000 -2.698000
12.146000 4.591000 -2.565000
13.875000 5.135000 -2.415000
11.440000 4.329000 -2.627000
12.970000 4.804000 -2.501000
14.958000 5.430000 -2.319000
10.810000 4.088000 -2.695000
12.179000 4.503000 -2.563000
13.920000 5.039000 -2.414000
11.489000 4.251000 -2.629000
12.992000 4.706000 -2.496000
14.992000 5.323000 -2.316000
10.852000 4.012000 -2.695000
12.214000 4.415000 -2.561000
13.944000 4.935000 -2.410000
11.509000 4.164000 -2.624000
13.013000 4.609000 -2.491000
15.044000 5.222000 -2.315000
10.872000 3.928000 -2.690000
12.253000 4.329000 -2.560000
13.982000 4.838000 -2.408000
11.541000 4.079000 -2.622000
13.055000 4.518000 -2.490000
15.079000 5.115000 -2.313000
10.914000 3.853000 -2.691000
12.271000 4.236000 -2.554000
13.991000 4.729000 -2.400000
11.571000 3.995000 -2.619000
13.091000 4.426000 -2.488000
15.087000 5.000000 -2.305000
10.936000 3.770000 -2.687000
12.306000 4.149000 -2.553000
14.044000 4.636000 -2.401000
11.586000 3.906000 -2.613000
13.114000 4.329000 -2.484000
15.120000 4.892000 -2.302000
10.963000 3.689000 -2.684000
12.346000 4.063000 -2.552000
14.065000 4.533000 -2.396000
11.639000 3.829000 -2.616000
13.143000 4.235000 -2.481000
15.177000 4.793000 -2.303000
10.988000 3.607000 -2.680000
12.370000 3.972000 -2.548000
14.095000 4.433000 -2.393000
11.672000 3.746000 -2.614000
13.180000 4.143000 -2.479000
15.193000 4.681000 -2.297000
11.017000 3.527000 -2.678000
12.409000 3.886000 -2.547000
14.125000 4.332000 -2.390000
11.703000 3.662000 -2.612000
13.216000 4.051000 -2.477000
15.239000 4.578000 -2.295000
11.048000 3.447000 -2.676000
12.439000 3.797000 -2.544000
14.167000 4.236000 -2.389000
11.718000 3.574000 -2.607000
13.237000 3.953000 -2.473000
15.287000 4.475000 -2.295000
11.073000 3.366000 -2.673000
12.465000 3.708000 -2.541000
14.198000 4.135000 -2.385000
11.746000 3.489000 -2.604000
13.270000 3.860000 -2.471000
15.340000 4.375000 -2.295000
11.108000 3.288000 -2.673000
12.499000 3.620000 -2.540000
14.226000 4.034000 -2.382000
11.779000 3.406000 -2.603000
13.304000 3.768000 -2.469000
15.306000 4.249000 -2.282000
11.137000 3.207000 -2.671000
12.531000 3.531000 -2.538000
14.268000 3.938000 -2.381000
11.819000 3.325000 -2.603000
13.336000 3.674000 -2.467000
15.376000 4.152000 -2.285000
11.149000 3.123000 -2.665000
12.568000 3.445000 -2.537000
14.285000 3.834000 -2.376000
11.847000 3.240000 -2.601000
13.361000 3.579000 -2.463000
15.398000 4.043000 -2.281000
11.181000 3.044000 -2.665000
12.589000 3.353000 -2.534000
14.320000 3.735000 -2.375000
11.871000 3.155000 -2.598000
13.401000 3.488000 -2.463000
15.428000 3.936000 -2.277000
11.217000 2.965000 -2.665000
12.612000 3.263000 -2.530000
14.338000 3.632000 -2.370000
11.896000 3.069000 -2.596000
13.423000 3.392000 -2.460000
15.432000 3.821000 -2.271000
11.242000 2.885000 -2.663000
12.634000 3.172000 -2.527000
14.384000 3.536000 -2.370000
11.924000 2.984000 -2.594000
13.440000 3.295000 -2.455000
15.444000 3.711000 -2.265000
11.272000 2.804000 -2.662000
12.666000 3.084000 -2.526000
14.416000 3.436000 -2.368000
11.952000 2.900000 -2.592000
13.488000 3.206000 -2.456000
15.504000 3.611000 -2.267000
11.289000 2.721000 -2.658000
12.685000 2.993000 -2.522000
14.449000 3.338000 -2.367000
11.971000 2.813000 -2.589000
13.514000 3.110000 -2.454000
15.469000 3.488000 -2.255000
11.299000 2.637000 -2.653000
12.719000 2.905000 -2.522000
14.469000 3.235000 -2.363000
12.001000 2.729000 -2.588000
13.537000 3.015000 -2.451000
15.500000 3.383000 -2.253000
11.338000 2.559000 -2.655000
12.745000 2.815000 -2.520000
14.495000 3.134000 -2.360000
12.027000 2.645000 -2.587000
13.559000 2.919000 -2.448000
15.520000 3.274000 -2.249000
11.352000 2.476000 -2.651000
12.768000 2.725000 -2.518000
14.532000 3.036000 -2.360000
12.058000 2.560000 -2.586000
13.583000 2.824000 -2.446000
15.653000 3.188000 -2.262000
11.382000 2.396000 -2.651000
12.790000 2.635000 -2.515000
14.535000 2.930000 -2.354000
12.062000 2.470000 -2.580000
13.620000 2.732000 -2.446000
15.621000 3.069000 -2.251000
11.384000 2.310000 -2.645000
12.810000 2.543000 -2.513000
14.581000 2.833000 -2.355000
12.074000 2.383000 -2.576000
13.644000 2.636000 -2.444000
15.578000 2.948000 -2.239000
11.373000 2.222000 -2.635000
12.835000 2.454000 -2.511000
14.601000 2.731000 -2.352000
12.107000 2.299000 -2.577000
13.674000 2.542000 -2.444000
15.632000 2.845000 -2.241000
11.381000 2.138000 -2.631000
12.863000 2.364000 -2.510000
14.617000 2.628000 -2.349000
12.126000 2.213000 -2.575000
13.684000 2.444000 -2.439000
15.744000 2.753000 -2.251000
11.369000 2.051000 -2.622000
12.901000 2.276000 -2.512000
14.663000 2.530000 -2.350000
12.155000 2.128000 -2.575000
13.677000 2.344000 -2.432000
15.766000 2.645000 -2.249000
11.407000 1.973000 -2.625000
12.905000 2.183000 -2.507000
14.675000 2.427000 -2.347000
12.170000 2.041000 -2.573000
13.736000 2.254000 -2.437000
15.736000 2.527000 -2.239000
11.482000 1.901000 -2.636000
12.919000 2.091000 -2.504000
14.699000 2.326000 -2.345000
12.160000 1.950000 -2.565000
13.763000 2.160000 -2.437000
15.729000 2.415000 -2.233000
11.506000 1.819000 -2.636000
12.944000 2.001000 -2.504000
14.725000 2.224000 -2.344000
12.193000 1.866000 -2.567000
13.767000 2.061000 -2.432000
15.834000 2.319000 -2.243000
11.490000 1.731000 -2.627000
12.954000 1.909000 -2.501000
14.730000 2.121000 -2.340000
12.223000 1.781000 -2.568000
13.799000 1.966000 -2.433000
15.819000 2.204000 -2.236000
11.499000 1.648000 -2.624000
12.984000 1.819000 -2.502000
14.743000 2.018000 -2.338000
12.229000 1.693000 -2.564000
13.812000 1.870000 -2.431000
15.795000 2.090000 -2.228000
11.512000 1.565000 -2.623000
12.969000 1.724000 -2.494000
14.743000 1.913000 -2.333000
12.230000 1.605000 -2.560000
13.855000 1.776000 -2.434000
15.841000 1.985000 -2.231000
11.532000 1.483000 -2.623000
12.990000 1.633000 -2.494000
14.814000 1.818000 -2.340000
12.254000 1.519000 -2.561000
13.828000 1.674000 -2.425000
15.888000 1.879000 -2.233000
11.611000 1.409000 -2.636000
13.014000 1.543000 -2.494000
14.842000 1.716000 -2.341000
12.307000 1.436000 -2.568000
13.854000 1.579000 -2.426000
15.929000 1.773000 -2.235000
11.564000 1.319000 -2.622000
13.031000 1.451000 -2.494000
14.844000 1.612000 -2.337000
12.299000 1.347000 -2.562000
13.860000 1.481000 -2.423000
15.953000 1.664000 -2.235000
11.557000 1.234000 -2.616000
13.051000 1.361000 -2.494000
14.837000 1.507000 -2.332000
12.323000 1.260000 -2.563000
13.858000 1.383000 -2.419000
15.915000 1.549000 -2.226000
11.587000 1.153000 -2.619000
13.088000 1.271000 -2.497000
14.882000 1.407000 -2.336000
12.340000 1.174000 -2.564000
13.937000 1.293000 -2.430000
15.925000 1.440000 -2.224000
11.609000 1.071000 -2.621000
13.083000 1.177000 -2.493000
14.882000 1.303000 -2.333000
12.355000 1.087000 -2.563000
13.913000 1.192000 -2.422000
15.996000 1.335000 -2.231000
11.625000 0.988000 -2.621000
13.084000 1.085000 -2.490000
14.923000 1.202000 -2.337000
12.386000 1.000000 -2.567000
13.929000 1.095000 -2.422000
15.989000 1.223000 -2.227000
11.674000 0.909000 -2.630000
13.116000 0.995000 -2.494000
14.929000 1.098000 -2.335000
12.384000 0.912000 -2.564000
13.962000 1.000000 -2.425000
15.975000 1.112000 -2.223000
11.694000 0.826000 -2.631000
13.134000 0.903000 -2.495000
14.913000 0.993000 -2.330000
12.396000 0.825000 -2.564000
13.936000 0.900000 -2.419000
16.023001 1.004000 -2.227000
11.723000 0.743000 -2.636000
13.171000 0.813000 -2.499000
15.011000 0.896000 -2.343000
12.408000 0.737000 -2.564000
13.979000 0.805000 -2.424000
16.002001 0.892000 -2.222000
11.724000 0.660000 -2.634000
13.175000 0.719000 -2.498000
15.009000 0.791000 -2.341000
12.414000 0.649000 -2.564000
14.015000 0.709000 -2.428000
16.032000 0.784000 -2.225000
11.730000 0.575000 -2.633000
13.142000 0.625000 -2.490000
15.018000 0.688000 -2.340000
12.423000 0.561000 -2.564000
14.054000 0.613000 -2.433000
16.063000 0.674000 -2.227000
11.728000 0.491000 -2.631000
13.193000 0.535000 -2.498000
15.039000 0.584000 -2.342000
12.428000 0.473000 -2.563000
14.063000 0.514000 -2.434000
16.158001 0.568000 -2.239000
11.723000 0.407000 -2.629000
13.225000 0.443000 -2.503000
15.048000 0.480000 -2.342000
12.436000 0.385000 -2.564000
14.044000 0.416000 -2.429000
16.149000 0.456000 -2.237000
11.732000 0.323000 -2.630000
13.196000 0.349000 -2.496000
15.064000 0.377000 -2.344000
12.458000 0.298000 -2.567000
14.045000 0.318000 -2.428000
16.207001 0.346000 -2.244000
11.725000 0.239000 -2.627000
13.211000 0.257000 -2.498000
15.047000 0.272000 -2.341000
12.412000 0.208000 -2.557000
14.099000 0.221000 -2.437000
16.235001 0.236000 -2.248000
11.711000 0.156000 -2.624000
13.214000 0.164000 -2.498000
15.070000 0.168000 -2.344000
12.449000 0.121000 -2.564000
14.050000 0.122000 -2.428000
16.209999 0.123000 -2.244000
11.731000 0.072000 -2.628000
13.219000 0.071000 -2.499000
15.105000 0.063000 -2.349000
12.443000 0.033000 -2.563000
14.110000 0.025000 -2.438000
16.179001 0.012000 -2.239000
11.732000 -0.011000 -2.628000
13.219000 -0.021000 -2.499000
15.085000 -0.039000 -2.346000
12.455000 -0.054000 -2.565000
14.074000 -0.073000 -2.432000
16.271999 -0.099000 -2.252000
11.756000 -0.095000 -2.633000
13.220000 -0.114000 -2.499000
15.078000 -0.144000 -2.345000
12.447000 -0.142000 -2.564000
14.081000 -0.170000 -2.434000
16.055000 -0.207000 -2.223000
11.687000 -0.178000 -2.619000
13.208000 -0.206000 -2.498000
15.022000 -0.248000 -2.337000
12.444000 -0.230000 -2.564000
14.052000 -0.268000 -2.430000
15.893000 -0.314000 -2.201000
11.673000 -0.260000 -2.616000
13.216000 -0.299000 -2.500000
15.032000 -0.351000 -2.339000
12.424000 -0.318000 -2.561000
14.031000 -0.366000 -2.427000
15.773000 -0.421000 -2.185000
11.643000 -0.343000 -2.610000
13.199000 -0.391000 -2.498000
14.992000 -0.454000 -2.334000
12.420000 -0.405000 -2.561000
14.042000 -0.463000 -2.430000
15.791000 -0.529000 -2.189000
11.658000 -0.427000 -2.615000
13.219000 -0.485000 -2.503000
15.098000 -0.562000 -2.352000
12.406000 -0.493000 -2.559000
14.054000 -0.562000 -2.433000
15.810000 -0.638000 -2.193000
11.647000 -0.510000 -2.614000
13.211000 -0.577000 -2.502000
15.049000 -0.664000 -2.345000
12.415000 -0.582000 -2.563000
14.046000 -0.660000 -2.433000
15.956000 -0.754000 -2.214000
11.702000 -0.596000 -2.628000
13.202000 -0.669000 -2.502000
15.036000 -0.767000 -2.345000
12.415000 -0.669000 -2.565000
13.992000 -0.754000 -2.425000
16.006001 -0.866000 -2.223000
11.672000 -0.678000 -2.623000
13.196000 -0.762000 -2.503000
15.018000 -0.871000 -2.344000
12.401000 -0.756000 -2.564000
14.034000 -0.855000 -2.435000
15.997000 -0.976000 -2.224000
11.688000 -0.762000 -2.629000
13.158000 -0.852000 -2.498000
15.025000 -0.975000 -2.347000
12.403000 -0.845000 -2.567000
14.017000 -0.952000 -2.434000
15.944000 -1.082000 -2.219000
11.686000 -0.846000 -2.631000
13.160000 -0.945000 -2.501000
15.046000 -1.081000 -2.353000
12.394000 -0.932000 -2.567000
14.019000 -1.050000 -2.437000
15.986000 -1.195000 -2.227000
11.689000 -0.930000 -2.634000
13.153000 -1.038000 -2.502000
15.022000 -1.183000 -2.352000
12.377000 -1.019000 -2.567000
14.032000 -1.149000 -2.442000
15.962000 -1.303000 -2.227000
11.673000 -1.013000 -2.633000
13.147000 -1.129000 -2.504000
14.980000 -1.284000 -2.348000
12.369000 -1.106000 -2.568000
13.965000 -1.242000 -2.433000
15.963000 -1.413000 -2.230000
11.659000 -1.095000 -2.634000
13.136000 -1.221000 -2.505000
14.990000 -1.389000 -2.353000
12.358000 -1.193000 -2.569000
13.987000 -1.341000 -2.440000
15.941000 -1.522000 -2.230000
11.637000 -1.177000 -2.632000
13.121000 -1.313000 -2.505000
14.978000 -1.492000 -2.354000
12.349000 -1.280000 -2.570000
13.957000 -1.437000 -2.439000
15.938000 -1.632000 -2.233000
11.653000 -1.263000 -2.639000
13.101000 -1.404000 -2.505000
14.953000 -1.594000 -2.354000
12.343000 -1.369000 -2.573000
13.943000 -1.534000 -2.439000
15.947000 -1.743000 -2.237000
11.630000 -1.344000 -2.638000
13.095000 -1.496000 -2.508000
14.941000 -1.697000 -2.356000
12.314000 -1.453000 -2.570000
13.960000 -1.633000 -2.446000
15.906000 -1.849000 -2.235000
11.624000 -1.428000 -2.640000
13.055000 -1.585000 -2.504000
14.951000 -1.802000 -2.361000
12.319000 -1.542000 -2.576000
13.934000 -1.729000 -2.446000
15.901000 -1.959000 -2.239000
11.600000 -1.509000 -2.639000
13.057000 -1.677000 -2.508000
14.907000 -1.902000 -2.358000
12.269000 -1.624000 -2.569000
13.896000 -1.823000 -2.443000
15.963000 -2.077000 -2.251000
11.590000 -1.592000 -2.642000
13.045000 -1.769000 -2.511000
14.904000 -2.007000 -2.362000
12.283000 -1.714000 -2.577000
13.905000 -1.922000 -2.449000
15.951000 -2.187000 -2.254000
11.587000 -1.676000 -2.645000
13.017000 -1.859000 -2.510000
14.889000 -2.109000 -2.364000
12.272000 -1.802000 -2.580000
13.875000 -2.017000 -2.449000
15.916000 -2.294000 -2.254000
11.571000 -1.758000 -2.647000
12.999000 -1.949000 -2.511000
14.845000 -2.207000 -2.362000
12.259000 -1.888000 -2.581000
13.884000 -2.117000 -2.455000
15.919000 -2.405000 -2.259000
11.554000 -1.840000 -2.648000
12.988000 -2.040000 -2.514000
14.810000 -2.307000 -2.361000
12.240000 -1.974000 -2.583000
13.844000 -2.209000 -2.453000
15.863000 -2.509000 -2.255000
11.546000 -1.923000 -2.651000
12.967000 -2.131000 -2.515000
14.843000 -2.417000 -2.372000
12.225000 -2.060000 -2.585000
13.819000 -2.304000 -2.454000
15.849000 -2.618000 -2.259000
11.515000 -2.003000 -2.650000
12.925000 -2.217000 -2.512000
14.748000 -2.506000 -2.361000
12.199000 -2.145000 -2.585000
13.784000 -2.397000 -2.453000
15.808000 -2.722000 -2.258000
11.486000 -2.082000 -2.649000
12.861000 -2.299000 -2.505000
14.751000 -2.612000 -2.368000
12.198000 -2.234000 -2.590000
13.771000 -2.493000 -2.456000
15.781000 -2.830000 -2.259000
11.465000 -2.164000 -2.650000
12.861000 -2.392000 -2.511000
14.725000 -2.712000 -2.369000
12.182000 -2.320000 -2.593000
13.749000 -2.588000 -2.458000
15.754000 -2.937000 -2.261000
11.459000 -2.247000 -2.655000
12.875000 -2.488000 -2.519000
14.643000 -2.802000 -2.361000
12.150000 -2.404000 -2.592000
13.719000 -2.682000 -2.458000
15.691000 -3.036000 -2.258000
11.441000 -2.329000 -2.657000
12.839000 -2.575000 -2.518000
14.629000 -2.904000 -2.365000
12.100000 -2.483000 -2.587000
13.675000 -2.772000 -2.456000
15.656000 -3.141000 -2.258000
11.416000 -2.409000 -2.657000
12.830000 -2.667000 -2.523000
14.593000 -3.001000 -2.365000
12.105000 -2.573000 -2.595000
13.608000 -2.858000 -2.451000
15.659000 -3.254000 -2.265000
11.397000 -2.490000 -2.660000
12.788000 -2.752000 -2.520000
14.567000 -3.101000 -2.367000
12.076000 -2.657000 -2.595000
13.578000 -2.950000 -2.451000
15.625000 -3.358000 -2.266000
11.370000 -2.569000 -2.660000
12.747000 -2.837000 -2.519000
14.512000 -3.195000 -2.364000
12.042000 -2.738000 -2.595000
13.558000 -3.044000 -2.454000
15.594000 -3.463000 -2.268000
11.351000 -2.651000 -2.663000
12.754000 -2.933000 -2.527000
14.483000 -3.293000 -2.366000
12.022000 -2.824000 -2.597000
13.514000 -3.134000 -2.453000
15.569000 -3.569000 -2.270000
11.323000 -2.730000 -2.663000
12.701000 -3.014000 -2.523000
14.506000 -3.404000 -2.376000
11.984000 -2.905000 -2.596000
13.479000 -3.225000 -2.453000
15.514000 -3.669000 -2.269000
11.294000 -2.808000 -2.664000
12.626000 -3.090000 -2.515000
14.429000 -3.491000 -2.370000
11.926000 -2.980000 -2.590000
13.499000 -3.329000 -2.463000
15.487000 -3.776000 -2.271000
11.271000 -2.889000 -2.665000
12.638000 -3.188000 -2.524000
14.408000 -3.592000 -2.373000
11.920000 -3.069000 -2.596000
13.455000 -3.418000 -2.463000
15.461000 -3.881000 -2.274000
11.237000 -2.966000 -2.665000
12.623000 -3.278000 -2.528000
14.379000 -3.691000 -2.375000
11.878000 -3.148000 -2.594000
13.432000 -3.512000 -2.465000
15.438000 -3.988000 -2.277000
11.221000 -3.048000 -2.669000
12.616000 -3.371000 -2.534000
14.356000 -3.790000 -2.378000
11.865000 -3.234000 -2.599000
13.400000 -3.603000 -2.466000
15.379000 -4.086000 -2.275000
11.174000 -3.121000 -2.665000
12.594000 -3.461000 -2.537000
14.330000 -3.889000 -2.381000
11.850000 -3.321000 -2.603000
13.371000 -3.696000 -2.468000
15.391000 -4.202000 -2.284000
11.180000 -3.209000 -2.674000
12.569000 -3.548000 -2.539000
14.303000 -3.989000 -2.383000
11.813000 -3.401000 -2.602000
13.353000 -3.792000 -2.472000
15.351000 -4.305000 -2.285000
11.141000 -3.285000 -2.673000
12.526000 -3.632000 -2.538000
14.277000 -4.087000 -2.386000
11.781000 -3.482000 -2.603000
13.324000 -3.883000 -2.474000
15.347000 -4.417000 -2.291000
11.121000 -3.366000 -2.676000
12.523000 -3.727000 -2.545000
14.250000 -4.187000 -2.389000
11.773000 -3.571000 -2.610000
13.302000 -3.978000 -2.477000
15.300000 -4.517000 -2.291000
11.087000 -3.442000 -2.676000
12.484000 -3.810000 -2.545000
14.221000 -4.285000 -2.391000
11.736000 -3.651000 -2.609000
13.277000 -4.072000 -2.480000
15.288000 -4.628000 -2.296000
11.053000 -3.518000 -2.676000
12.457000 -3.898000 -2.547000
14.190000 -4.383000 -2.393000
11.728000 -3.740000 -2.615000
13.238000 -4.160000 -2.480000
15.257000 -4.733000 -2.298000
11.034000 -3.600000 -2.680000
12.438000 -3.988000 -2.550000
14.159000 -4.480000 -2.395000
11.686000 -3.818000 -2.614000
13.222000 -4.256000 -2.485000
15.205000 -4.831000 -2.297000
11.006000 -3.678000 -2.681000
12.409000 -4.075000 -2.552000
14.130000 -4.579000 -2.397000
11.647000 -3.897000 -2.613000
13.196000 -4.350000 -2.487000
15.186000 -4.940000 -2.302000
10.987000 -3.759000 -2.685000
12.373000 -4.160000 -2.553000
14.108000 -4.679000 -2.400000
11.618000 -3.978000 -2.614000
13.180000 -4.446000 -2.492000
15.176000 -5.052000 -2.307000
10.958000 -3.837000 -2.686000
12.353000 -4.250000 -2.556000
14.080000 -4.778000 -2.403000
11.595000 -4.063000 -2.618000
13.133000 -4.532000 -2.491000
15.141000 -5.155000 -2.308000
10.926000 -3.914000 -2.687000
12.335000 -4.340000 -2.560000
14.064000 -4.881000 -2.407000
11.571000 -4.147000 -2.620000
13.127000 -4.633000 -2.497000
15.127000 -5.266000 -2.314000
10.889000 -3.989000 -2.687000
12.304000 -4.426000 -2.562000
14.028000 -4.977000 -2.408000
11.553000 -4.232000 -2.624000
13.099000 -4.725000 -2.499000
15.071000 -5.363000 -2.312000
10.869000 -4.070000 -2.690000
12.267000 -4.511000 -2.562000
14.000000 -5.076000 -2.411000
11.524000 -4.315000 -2.626000
13.067000 -4.817000 -2.501000
15.047000 -5.470000 -2.315000
10.850000 -4.151000 -2.694000
12.250000 -4.602000 -2.566000
13.988000 -5.181000 -2.416000
11.507000 -4.401000 -2.630000
13.044000 -4.912000 -2.504000
15.018000 -5.576000 -2.318000
10.832000 -4.234000 -2.698000
12.218000 -4.688000 -2.568000
13.965000 -5.282000 -2.419000
11.473000 -4.481000 -2.630000
13.032000 -5.010000 -2.509000
15.005000 -5.688000 -2.322000
10.797000 -4.309000 -2.698000
12.189000 -4.775000 -2.569000
13.938000 -5.381000 -2.422000
11.438000 -4.561000 -2.631000
13.017000 -5.108000 -2.514000
14.975000 -5.793000 -2.324000
10.772000 -4.388000 -2.700000
12.165000 -4.863000 -2.572000
13.924000 -5.487000 -2.426000
11.420000 -4.648000 -2.634000
12.984000 -5.200000 -2.514000
14.948000 -5.900000 -2.327000
10.745000 -4.467000 -2.702000
12.132000 -4.949000 -2.573000
13.890000 -5.583000 -2.427000
11.397000 -4.732000 -2.637000
12.966000 -5.297000 -2.518000
14.920000 -6.007000 -2.328000
10.728000 -4.550000 -2.706000
12.116000 -5.041000 -2.576000
13.861000 -5.682000 -2.429000
11.366000 -4.813000 -2.638000
12.934000 -5.388000 -2.519000
14.870000 -6.104000 -2.326000
10.705000 -4.630000 -2.708000
12.098000 -5.132000 -2.580000
13.836000 -5.783000 -2.431000
11.339000 -4.897000 -2.640000
12.918000 -5.487000 -2.523000
14.864000 -6.221000 -2.332000
10.673000 -4.707000 -2.709000
12.071000 -5.221000 -2.582000
13.838000 -5.895000 -2.438000
11.327000 -4.986000 -2.645000
12.888000 -5.579000 -2.524000
14.844000 -6.331000 -2.334000
10.649000 -4.787000 -2.711000
12.037000 -5.306000 -2.582000
13.805000 -5.993000 -2.439000
11.301000 -5.069000 -2.647000
12.859000 -5.672000 -2.526000
14.813000 -6.436000 -2.335000
10.623000 -4.866000 -2.712000
12.013000 -5.395000 -2.584000
13.793000 -6.100000 -2.443000
11.274000 -5.153000 -2.648000
12.839000 -5.770000 -2.528000
14.786000 -6.544000 -2.337000
10.611000 -4.952000 -2.718000
11.993000 -5.486000 -2.587000
13.770000 -6.202000 -2.444000
11.262000 -5.242000 -2.652000
12.820000 -5.867000 -2.531000
14.758000 -6.651000 -2.338000
10.580000 -5.029000 -2.717000
11.976000 -5.579000 -2.590000
13.726000 -6.295000 -2.443000
11.237000 -5.326000 -2.654000
12.795000 -5.962000 -2.533000
14.767000 -6.775000 -2.344000
10.551000 -5.106000 -2.718000
11.954000 -5.670000 -2.592000
13.684000 -6.389000 -2.441000
11.218000 -5.414000 -2.657000
12.785000 -6.064000 -2.536000
14.734000 -6.880000 -2.345000
10.536000 -5.191000 -2.722000
11.932000 -5.760000 -2.594000
13.717000 -6.517000 -2.452000
11.200000 -5.501000 -2.659000
12.752000 -6.155000 -2.536000
14.705000 -6.988000 -2.344000
10.509000 -5.270000 -2.722000
11.913000 -5.852000 -2.597000
13.676000 -6.611000 -2.451000
11.192000 -5.595000 -2.665000
12.726000 -6.250000 -2.537000
14.685000 -7.099000 -2.346000
10.488000 -5.352000 -2.724000
11.895000 -5.945000 -2.598000
13.646000 -6.711000 -2.450000
11.155000 -5.673000 -2.663000
12.706000 -6.347000 -2.539000
14.673000 -7.215000 -2.349000
10.474000 -5.437000 -2.729000
11.870000 -6.035000 -2.600000
13.626000 -6.815000 -2.451000
11.119000 -5.752000 -2.660000
12.683000 -6.443000 -2.539000
14.652000 -7.327000 -2.349000
10.448000 -5.517000 -2.729000
11.860000 -6.131000 -2.603000
13.599000 -6.916000 -2.452000
11.119000 -5.849000 -2.667000
12.670000 -6.545000 -2.542000
14.649000 -7.447000 -2.352000
10.430000 -5.600000 -2.731000
11.854000 -6.231000 -2.607000
13.582000 -7.023000 -2.452000
11.108000 -5.942000 -2.670000
12.656000 -6.646000 -2.544000
14.637000 -7.564000 -2.354000
10.413000 -5.685000 -2.733000
11.839000 -6.326000 -2.609000
13.564000 -7.128000 -2.453000
11.084000 -6.026000 -2.671000
12.634000 -6.744000 -2.544000
14.610000 -7.673000 -2.352000
10.388000 -5.765000 -2.733000
11.821000 -6.420000 -2.611000
13.554000 -7.238000 -2.455000
11.074000 -6.120000 -2.675000
12.621000 -6.846000 -2.546000
14.599000 -7.790000 -2.353000
10.384000 -5.857000 -2.738000
11.800000 -6.512000 -2.610000
13.545000 -7.350000 -2.456000
11.054000 -6.207000 -2.674000
12.600000 -6.943000 -2.546000
14.593000 -7.910000 -2.355000
10.350000 -5.932000 -2.736000
11.779000 -6.604000 -2.610000
13.523000 -7.454000 -2.455000
11.026000 -6.290000 -2.673000
12.592000 -7.049000 -2.548000
14.596000 -8.037000 -2.357000
10.337000 -6.018000 -2.737000
11.772000 -6.704000 -2.614000
13.520000 -7.569000 -2.458000
11.021000 -6.386000 -2.677000
12.573000 -7.148000 -2.547000
14.564000 -8.143000 -2.353000
10.322000 -6.105000 -2.739000
11.758000 -6.800000 -2.614000
13.512000 -7.681000 -2.458000
11.010000 -6.479000 -2.678000
12.574000 -7.259000 -2.551000
14.563000 -8.268000 -2.355000
10.305000 -6.189000 -2.740000
11.734000 -6.891000 -2.612000
13.507000 -7.795000 -2.459000
10.991000 -6.567000 -2.678000
12.560000 -7.362000 -2.550000
14.569000 -8.396000 -2.355000
10.298000 -6.280000 -2.743000
11.732000 -6.994000 -2.615000
13.488000 -7.902000 -2.458000
10.975000 -6.658000 -2.679000
12.563000 -7.474000 -2.553000
14.545000 -8.507000 -2.352000
10.282000 -6.365000 -2.743000
11.725000 -7.095000 -2.616000
13.472000 -8.010000 -2.455000
10.953000 -6.744000 -2.676000
12.535000 -7.568000 -2.549000
14.557000 -8.640000 -2.354000
10.278000 -6.458000 -2.746000
11.720000 -7.197000 -2.617000
13.514000 -8.153000 -2.463000
10.961000 -6.848000 -2.681000
12.544000 -7.685000 -2.552000
14.563000 -8.770000 -2.353000
10.262000 -6.544000 -2.745000
11.718000 -7.301000 -2.619000
13.490000 -8.256000 -2.459000
10.942000 -6.937000 -2.680000
12.547000 -7.798000 -2.553000
14.590000 -8.912000 -2.356000
10.249000 -6.630000 -2.745000
11.711000 -7.402000 -2.618000
13.483000 -8.371000 -2.457000
10.946000 -7.040000 -2.682000
12.544000 -7.907000 -2.554000
14.588000 -9.038000 -2.355000
10.250000 -6.727000 -2.749000
11.708000 -7.505000 -2.619000
13.515000 -8.509000 -2.462000
10.945000 -7.139000 -2.684000
12.535000 -8.014000 -2.551000
14.604000 -9.176000 -2.354000
10.239000 -6.816000 -2.748000
11.699000 -7.606000 -2.618000
13.488000 -8.611000 -2.456000
10.927000 -7.228000 -2.682000
12.537000 -8.127000 -2.551000
14.621000 -9.313000 -2.354000
10.226000 -6.903000 -2.747000
11.704000 -7.715000 -2.618000
13.504000 -8.741000 -2.456000
10.930000 -7.331000 -2.682000
12.548000 -8.246000 -2.553000
14.626000 -9.444000 -2.352000
10.219000 -6.994000 -2.747000
11.710000 -7.825000 -2.619000
13.531000 -8.877000 -2.458000
10.932000 -7.432000 -2.683000
12.559000 -8.366000 -2.552000
14.656000 -9.591000 -2.351000
10.223000 -7.092000 -2.748000
11.712000 -7.932000 -2.620000
13.521000 -8.990000 -2.453000
10.931000 -7.533000 -2.684000
12.568000 -8.484000 -2.552000
14.689000 -9.741000 -2.351000
10.220000 -7.186000 -2.748000
11.711000 -8.038000 -2.617000
13.532000 -9.117000 -2.450000
10.929000 -7.632000 -2.681000
12.572000 -8.599000 -2.550000
14.725000 -9.894000 -2.352000
10.223000 -7.284000 -2.750000
11.728000 -8.154000 -2.618000
13.565000 -9.258000 -2.452000
10.925000 -7.729000 -2.679000
12.589000 -8.724000 -2.549000
14.736000 -10.030000 -2.346000
10.220000 -7.377000 -2.748000
11.735000 -8.266000 -2.618000
13.587000 -9.393000 -2.451000
10.940000 -7.840000 -2.681000
12.605000 -8.846000 -2.548000
14.778000 -10.187000 -2.345000
10.226000 -7.476000 -2.748000
11.726000 -8.365000 -2.612000
13.633000 -9.545000 -2.452000
10.947000 -7.946000 -2.680000
12.619000 -8.968000 -2.547000
14.805000 -10.334000 -2.342000
10.231000 -7.576000 -2.748000
11.746000 -8.484000 -2.612000
13.636000 -9.667000 -2.446000
10.948000 -8.045000 -2.677000
12.649000 -9.102000 -2.546000
14.830000 -10.482000 -2.336000
10.229000 -7.669000 -2.744000
11.764000 -8.603000 -2.612000
13.683000 -9.819000 -2.447000
10.964000 -8.157000 -2.678000
12.663000 -9.224000 -2.542000
14.901000 -10.660000 -2.338000
10.246000 -7.776000 -2.746000
11.774000 -8.716000 -2.607000
13.700000 -9.952000 -2.441000
10.978000 -8.267000 -2.676000
12.688000 -9.354000 -2.541000
14.957000 -10.829000 -2.337000
10.249000 -7.873000 -2.744000
11.813000 -8.849000 -2.610000
13.730000 -10.092000 -2.437000
10.995000 -8.379000 -2.674000
12.702000 -9.475000 -2.535000
15.006000 -10.993000 -2.331000
10.273000 -7.985000 -2.745000
11.815000 -8.955000 -2.604000
13.784000 -10.250000 -2.437000
11.016000 -8.494000 -2.674000
12.744000 -9.618000 -2.534000
15.076000 -11.173000 -2.330000
10.284000 -8.086000 -2.742000
11.849000 -9.085000 -2.602000
13.835000 -10.408000 -2.434000
11.033000 -8.605000 -2.671000
12.780000 -9.756000 -2.532000
15.120000 -11.335000 -2.324000
10.297000 -8.190000 -2.741000
11.892000 -9.220000 -2.603000
13.885000 -10.563000 -2.430000
11.069000 -8.730000 -2.672000
12.809000 -9.888000 -2.526000
15.198000 -11.521000 -2.320000
10.322000 -8.301000 -2.740000
11.914000 -9.341000 -2.599000
13.929000 -10.715000 -2.426000
11.089000 -8.842000 -2.668000
12.863000 -10.039000 -2.525000
15.282000 -11.712000 -2.317000
10.348000 -8.413000 -2.739000
11.948000 -9.470000 -2.595000
13.997000 -10.884000 -2.422000
11.115000 -8.960000 -2.665000
12.933000 -10.202000 -2.527000
15.355000 -11.895000 -2.312000
10.377000 -8.527000 -2.739000
11.989000 -9.603000 -2.592000
14.063000 -11.052000 -2.419000
11.164000 -9.093000 -2.666000
12.963000 -10.334000 -2.518000
15.426000 -12.078000 -2.303000
10.398000 -8.633000 -2.734000
12.024000 -9.732000 -2.588000
14.124000 -11.217000 -2.414000
11.189000 -9.208000 -2.661000
13.015000 -10.482000 -2.514000
15.514000 -12.273000 -2.297000
10.435000 -8.753000 -2.733000
12.075000 -9.873000 -2.585000
14.194000 -11.387000 -2.407000
11.231000 -9.336000 -2.658000
13.067000 -10.631000 -2.509000
15.603000 -12.469000 -2.291000
10.469000 -8.868000 -2.731000
12.103000 -9.994000 -2.576000
14.294000 -11.582000 -2.406000
11.272000 -9.463000 -2.655000
13.121000 -10.780000 -2.502000
15.692000 -12.664000 -2.281000
10.498000 -8.980000 -2.726000
12.166000 -10.143000 -2.575000
14.375000 -11.761000 -2.400000
11.319000 -9.592000 -2.651000
13.188000 -10.939000 -2.497000
15.791000 -12.866000 -2.272000
10.536000 -9.095000 -2.722000
12.226000 -10.289000 -2.570000
14.466000 -11.948000 -2.393000
11.361000 -9.718000 -2.646000
13.286000 -11.123000 -2.497000
15.899000 -13.077000 -2.265000
10.585000 -9.221000 -2.721000
12.299000 -10.444000 -2.567000
14.552000 -12.129000 -2.385000
11.418000 -9.854000 -2.643000
13.369000 -11.295000 -2.491000
15.996000 -13.278000 -2.252000
10.613000 -9.328000 -2.713000
12.358000 -10.589000 -2.562000
14.652000 -12.323000 -2.379000
11.466000 -9.981000 -2.636000
13.457000 -11.469000 -2.486000
16.110001 -13.492000 -2.241000
10.687000 -9.472000 -2.715000
12.426000 -10.738000 -2.555000
14.755000 -12.517000 -2.370000
11.538000 -10.130000 -2.634000
13.534000 -11.633000 -2.479000
16.247000 -13.724000 -2.232000
10.755000 -9.610000 -2.715000
12.508000 -10.898000 -2.551000
14.858000 -12.710000 -2.360000
11.597000 -10.263000 -2.628000
13.629000 -11.811000 -2.471000
16.379999 -13.953000 -2.219000
10.784000 -9.713000 -2.703000
12.583000 -11.051000 -2.544000
14.971000 -12.911000 -2.352000
11.672000 -10.410000 -2.624000
13.731000 -11.993000 -2.464000
16.520000 -14.186000 -2.207000
10.849000 -9.845000 -2.699000
12.664000 -11.208000 -2.536000
15.120000 -13.141000 -2.345000
11.736000 -10.546000 -2.616000
13.826000 -12.169000 -2.455000
16.650999 -14.411000 -2.193000
10.907000 -9.969000 -2.693000
12.770000 -11.385000 -2.532000
15.228000 -13.335000 -2.331000
11.826000 -10.703000 -2.612000
13.928000 -12.348000 -2.444000
16.813000 -14.660000 -2.178000
10.988000 -10.112000 -2.690000
12.865000 -11.551000 -2.526000
15.360000 -13.548000 -2.321000
11.893000 -10.836000 -2.602000
14.051000 -12.544000 -2.437000
16.990999 -14.923000 -2.165000
11.069000 -10.253000 -2.687000
12.966000 -11.720000 -2.517000
15.482000 -13.751000 -2.304000
11.992000 -10.999000 -2.598000
14.186000 -12.750000 -2.430000
17.170000 -15.184000 -2.151000
11.147000 -10.389000 -2.681000
13.063000 -11.882000 -2.507000
15.640000 -13.983000 -2.293000
12.086000 -11.151000 -2.591000
14.294000 -12.928000 -2.415000
17.365000 -15.458000 -2.134000
11.226000 -10.523000 -2.674000
13.173000 -12.055000 -2.499000
15.795000 -14.211000 -2.281000
12.171000 -11.295000 -2.581000
14.429000 -13.128000 -2.404000
17.562000 -15.731000 -2.117000
11.313000 -10.662000 -2.667000
13.295000 -12.236000 -2.489000
15.978000 -14.461000 -2.267000
12.277000 -11.455000 -2.573000
14.558000 -13.321000 -2.392000
17.756001 -15.999000 -2.099000
11.392000 -10.791000 -2.658000
13.408000 -12.405000 -2.477000
16.129000 -14.678000 -2.249000
12.391000 -11.620000 -2.566000
14.722000 -13.542000 -2.381000
17.966000 -16.280001 -2.077000
11.494000 -10.939000 -2.651000
13.532000 -12.582000 -2.467000
16.312000 -14.922000 -2.235000
12.485000 -11.762000 -2.553000
14.871000 -13.748000 -2.367000
18.184000 -16.563000 -2.056000
11.588000 -11.075000 -2.642000
13.659000 -12.759000 -2.453000
16.507000 -15.175000 -2.217000
12.601000 -11.923000 -2.544000
15.018000 -13.947000 -2.352000
18.426001 -16.865999 -2.036000
11.677000 -11.203000 -2.630000
13.822000 -12.964000 -2.445000
16.695000 -15.418000 -2.198000
12.728000 -12.090000 -2.534000
15.215000 -14.190000 -2.340000
18.714001 -17.208000 -2.016000
11.799000 -11.359000 -2.625000
13.975000 -13.159000 -2.435000
16.938000 -15.708000 -2.185000
12.851000 -12.249000 -2.522000
15.399000 -14.417000 -2.326000
18.936001 -17.486000 -1.989000
11.915000 -11.506000 -2.615000
14.118000 -13.339000 -2.418000
17.129999 -15.946000 -2.161000
12.986000 -12.416000 -2.512000
15.569000 -14.626000 -2.309000
19.216999 -17.813999 -1.966000
12.032000 -11.650000 -2.604000
14.301000 -13.554000 -2.409000
17.370001 -16.225000 -2.142000
13.128000 -12.586000 -2.499000
15.756000 -14.847000 -2.290000
19.545000 -18.181000 -1.942000
12.159000 -11.800000 -2.596000
14.468000 -13.749000 -2.395000
17.601000 -16.492001 -2.121000
13.270000 -12.751000 -2.486000
15.963000 -15.082000 -2.273000
19.844999 -18.516001 -1.914000
12.277000 -11.936000 -2.581000
14.630000 -13.933000 -2.376000
17.853001 -16.771999 -2.097000
13.423000 -12.924000 -2.475000
16.193001 -15.336000 -2.259000
20.112000 -18.816000 -1.882000
12.420000 -12.092000 -2.572000
14.819000 -14.140000 -2.362000
18.138000 -17.077999 -2.076000
13.583000 -13.097000 -2.460000
16.382000 -15.544000 -2.233000
20.431999 -19.160999 -1.849000
12.552000 -12.234000 -2.559000
14.998000 -14.332000 -2.345000
18.357000 -17.316999 -2.047000
13.754000 -13.276000 -2.447000
16.622999 -15.796000 -2.215000
20.799999 -19.544001 -1.820000
12.696000 -12.381000 -2.546000
15.205000 -14.545000 -2.328000
18.673000 -17.642000 -2.023000
13.930000 -13.455000 -2.435000
16.870001 -16.049000 -2.197000
21.166000 -19.917999 -1.788000
12.845000 -12.529000 -2.533000
15.436000 -14.776000 -2.314000
18.996000 -17.966999 -2.000000
14.119000 -13.641000 -2.420000
17.115000 -16.292999 -2.173000
21.534000 -20.288000 -1.751000
12.998000 -12.675000 -2.520000
15.618000 -14.954000 -2.292000
19.316999 -18.284000 -1.974000
14.292000 -13.805000 -2.402000
17.385000 -16.556000 -2.152000
21.934000 -20.681999 -1.715000
13.162000 -12.826000 -2.505000
15.829000 -15.153000 -2.270000
19.635000 -18.590000 -1.943000
14.498000 -13.998000 -2.390000
17.641001 -16.799000 -2.128000
22.337000 -21.070999 -1.678000
13.326000 -12.973000 -2.491000
16.086000 -15.393000 -2.255000
19.976000 -18.912001 -1.913000
14.690000 -14.169000 -2.370000
17.927000 -17.063000 -2.103000
22.771000 -21.480000 -1.637000
13.500000 -13.124000 -2.478000
16.299000 -15.582000 -2.232000
20.301001 -19.212000 -1.881000
14.884000 -14.337000 -2.352000
18.205999 -17.313000 -2.077000
23.188999 -21.865999 -1.594000
13.690000 -13.283000 -2.463000
16.561001 -15.810000 -2.211000
20.666000 -19.540001 -1.847000
15.094000 -14.515000 -2.335000
18.525000 -17.596001 -2.054000
23.669001 -22.299999 -1.554000
13.871000 -13.428000 -2.447000
16.818001 -16.028000 -2.190000
21.027000 -19.856001 -1.812000
15.336000 -14.715000 -2.318000
18.829000 -17.854000 -2.024000
24.110001 -22.690001 -1.504000
14.066000 -13.582000 -2.434000
17.070000 -16.233999 -2.167000
21.407000 -20.181999 -1.776000
15.534000 -14.867000 -2.295000
19.159000 -18.129999 -1.998000
24.650999 -23.164000 -1.460000
14.257000 -13.724000 -2.415000
17.320999 -16.433001 -2.140000
21.790001 -20.503000 -1.737000
15.768000 -15.048000 -2.277000
19.482000 -18.392000 -1.969000
25.290001 -23.719000 -1.418000
14.459000 -13.872000 -2.399000
17.617001 -16.666000 -2.118000
22.243999 -20.881001 -1.703000
16.016001 -15.235000 -2.257000
19.837000 -18.674999 -1.939000
25.784000 -24.125000 -1.364000
14.669000 -14.020000 -2.384000
17.900999 -16.879999 -2.094000
22.650999 -21.205000 -1.662000
16.226000 -15.379000 -2.232000
20.158001 -18.917999 -1.905000
26.337999 -24.579000 -1.311000
14.864000 -14.147000 -2.362000
18.190001 -17.090000 -2.067000
23.079000 -21.537001 -1.619000
16.495001 -15.572000 -2.215000
20.535000 -19.204000 -1.876000
27.051001 -25.167999 -1.263000
15.091000 -14.300000 -2.346000
18.482000 -17.298000 -2.040000
23.506001 -21.858999 -1.576000
16.754999 -15.748000 -2.192000
20.886999 -19.457001 -1.839000
27.650999 -25.638000 -1.204000
15.329000 -14.455000 -2.332000
18.785000 -17.506001 -2.013000
24.039000 -22.271000 -1.537000
17.003000 -15.908000 -2.168000
21.252001 -19.714001 -1.805000
28.350000 -26.188000 -1.149000
15.532000 -14.571000 -2.308000
19.111000 -17.726000 -1.985000
24.487000 -22.590000 -1.489000
17.259001 -16.066000 -2.145000
21.653000 -19.995001 -1.772000
29.136999 -26.806000 -1.093000
15.752000 -14.696000 -2.288000
19.441000 -17.943001 -1.958000
24.989000 -22.950001 -1.444000
17.514999 -16.216000 -2.118000
22.021999 -20.236000 -1.732000
29.921000 -27.403000 -1.032000
15.988000 -14.831000 -2.270000
19.760000 -18.141001 -1.929000
25.565001 -23.364000 -1.400000
17.781000 -16.368999 -2.094000
22.440001 -20.511999 -1.696000
30.462999 -27.766001 -0.961000
16.212999 -14.947000 -2.247000
20.091000 -18.341999 -1.897000
26.197001 -23.818001 -1.356000
18.059000 -16.525999 -2.070000
22.841999 -20.764999 -1.659000
31.122999 -28.223000 -0.892000
16.452000 -15.071000 -2.227000
20.407000 -18.520000 -1.865000
26.740999 -24.179001 -1.306000
18.354000 -16.690001 -2.045000
23.291000 -21.049000 -1.620000
31.982000 -28.843000 -0.824000
16.681000 -15.178000 -2.206000
20.757999 -18.721001 -1.835000
27.283001 -24.525999 -1.254000
18.631001 -16.830999 -2.018000
23.705000 -21.292000 -1.580000
32.617001 -29.249001 -0.749000
16.941999 -15.308000 -2.185000
21.080000 -18.886999 -1.799000
27.923000 -24.945999 -1.203000
18.938000 -16.990999 -1.995000
24.162001 -21.562000 -1.542000
32.452999 -28.926001 -0.656000
17.181000 -15.412000 -2.163000
21.441999 -19.080999 -1.768000
28.516001 -25.313000 -1.150000
19.257000 -17.153000 -1.970000
24.622999 -21.823999 -1.500000
32.532001 -28.809999 -0.569000
17.429001 -15.516000 -2.142000
21.827999 -19.287001 -1.739000
29.221001 -25.767000 -1.099000
19.497000 -17.239000 -1.938000
25.028000 -22.028000 -1.456000
32.598000 -28.677000 -0.484000
17.679001 -15.616000 -2.119000
22.132999 -19.412001 -1.699000
29.818001 -26.107000 -1.041000
19.789000 -17.363001 -1.911000
25.527000 -22.304001 -1.417000
32.752998 -28.615999 -0.401000
17.917000 -15.699000 -2.095000
22.493999 -19.579000 -1.665000
30.365000 -26.393000 -0.981000
20.142000 -17.531000 -1.887000
26.070999 -22.606001 -1.376000
32.893002 -28.528000 -0.319000
18.146000 -15.769000 -2.071000
22.891001 -19.768000 -1.634000
30.954000 -26.702999 -0.921000
20.445000 -17.650999 -1.859000
26.556999 -22.848000 -1.333000
38.521999 -33.160999 -0.279000
18.421000 -15.870000 -2.049000
23.277000 -19.937000 -1.599000
31.795000 -27.214001 -0.866000
20.749001 -17.763000 -1.832000
26.996000 -23.038000 -1.288000
39.039001 -33.346001 -0.189000
18.695999 -15.967000 -2.028000
23.671000 -20.105000 -1.565000
32.256001 -27.386999 -0.800000
21.028000 -17.844999 -1.800000
27.549000 -23.313999 -1.244000
39.082001 -33.112999 -0.096000
18.947001 -16.035999 -2.006000
24.082001 -20.278000 -1.533000
33.242001 -27.990999 -0.746000
21.327000 -17.938999 -1.771000
28.035000 -23.523001 -1.198000
39.060001 -32.824001 -0.007000
19.198999 -16.100000 -1.981000
24.497000 -20.444000 -1.498000
33.898998 -28.298000 -0.682000
21.627001 -18.025999 -1.744000
28.638000 -23.818001 -1.159000
39.172001 -32.639000 0.078000
19.436001 -16.146000 -1.956000
24.910000 -20.603001 -1.464000
34.707001 -28.719999 -0.620000
21.955999 -18.128000 -1.715000
29.169001 -24.040001 -1.111000
39.264999 -32.426998 0.164000
19.712000 -16.218000 -1.936000
25.229000 -20.673000 -1.426000
35.265999 -28.921000 -0.554000
22.295000 -18.235001 -1.689000
29.655001 -24.215000 -1.064000
39.306000 -32.172001 0.246000
19.974001 -16.271000 -1.912000
25.653000 -20.820000 -1.390000
35.914001 -29.177999 -0.487000
22.589001 -18.296000 -1.660000
30.184999 -24.416000 -1.020000
39.405998 -31.959999 0.326000
20.245001 -16.327999 -1.890000
26.049000 -20.937000 -1.355000
36.666000 -29.509001 -0.422000
22.905001 -18.367001 -1.631000
30.725000 -24.612000 -0.971000
39.487000 -31.719999 0.405000
20.483999 -16.353001 -1.867000
26.461000 -21.059000 -1.322000
38.391998 -30.601000 -0.366000
23.233999 -18.444000 -1.604000
31.459999 -24.952999 -0.931000
39.568001 -31.481001 0.481000
20.732000 -16.379999 -1.842000
26.858000 -21.158001 -1.284000
38.706001 -30.546000 -0.294000
23.497999 -18.462000 -1.574000
31.839001 -25.000000 -0.882000
39.666000 -31.250000 0.554000
21.014999 -16.429001 -1.822000
27.271999 -21.264999 -1.250000
39.655998 -30.982000 -0.228000
23.843000 -18.535999 -1.546000
32.584000 -25.323000 -0.838000
39.713001 -30.969999 0.626000
21.229000 -16.417999 -1.798000
27.638000 -21.325001 -1.215000
